ply
format ascii 1.0
comment Created by Open3D
element vertex 1719
property double x
property double y
property double z
end_header
0.0258352 -0.270325 3.97345
-0.154961 -0.329778 3.44374
-0.624049 -0.733348 3.88254
-0.504955 -0.348088 3.44104
-0.406371 -0.601828 3.73723
-0.581217 -0.421195 4.06507
-0.0687752 -0.0482976 3.3951
-0.150981 -0.382269 3.54707
-0.558793 -0.190595 3.61175
-0.4251 -0.420693 3.96137
-0.079086 -0.322084 3.49309
-0.782407 -0.44955 3.71146
-0.26121 -0.448181 3.92352
-0.768483 -0.358133 3.91542
-0.608708 -0.543738 4.07944
-0.658759 -0.32134 3.64348
-0.337394 -0.539569 3.66315
-0.531679 -0.172574 3.7935
-0.449701 -0.0874952 3.57959
-0.401549 -0.399879 3.9384
-0.0797016 -0.277442 3.94538
-0.296111 -0.179352 3.39451
-0.694622 -0.288831 3.70884
-0.58485 -0.71835 3.77927
-0.39031 -0.619296 3.8245
-0.507551 -0.257909 3.43306
-0.830351 -0.548166 3.7743
-0.024997 -0.655245 3.83663
0.0235572 -0.330701 3.69838
-0.132894 -0.243054 3.89615
-0.0720802 -0.198335 3.832
-0.204014 -0.15907 3.72283
-0.602829 -0.224478 3.75156
-0.225357 -0.0827478 3.38999
-0.769709 -0.674743 4.03649
0.112966 -0.271502 3.72824
-0.172951 -0.421165 3.66692
-0.466795 -0.104524 3.70567
-0.756767 -0.340284 3.88396
-0.579522 -0.255752 3.91135
-0.433085 -0.417318 3.96719
-0.785081 -0.454474 3.98891
-0.0545472 -0.259067 3.77143
-0.615189 -0.260226 3.90292
-0.475606 -0.426651 4.0695
-0.0176712 -0.0925908 3.30709
-0.730152 -0.44587 3.65162
-0.4161 -0.665865 3.94563
-0.195935 -0.315105 3.41511
-0.33578 -0.572031 3.70746
-0.252563 -0.160766 3.40205
-0.0728737 0.0201064 3.3405
-0.188983 -0.255324 3.47604
-0.226367 -0.312677 3.85866
-0.64361 -0.458197 3.60102
-0.611374 -0.288487 3.94946
-0.818899 -0.425048 3.91865
-0.0633319 -0.221492 3.75262
-0.100878 -0.59037 3.70886
-0.829397 -0.386779 3.84395
-0.659432 -0.302726 3.61493
-0.330497 -0.50663 3.82503
-0.240343 -0.383394 3.90317
-0.0189342 -0.0688764 3.36922
-0.157419 -0.174511 3.64424
-0.0694274 -0.373546 3.71991
-0.226582 -0.0890381 3.54683
-0.685764 -0.547976 4.07066
-1.0713 -0.810612 3.85118
-0.792321 -0.390056 3.89842
-0.159373 -0.382612 3.48733
-0.197521 -0.130776 3.38359
-0.380162 -0.423747 3.4242
-0.278918 -0.204658 3.38928
-0.00150286 -0.478388 3.61458
-0.695029 -0.689559 3.8312
-0.0809901 -0.247628 3.81551
-0.780728 -0.307037 3.85301
-0.267947 -0.504595 3.8816
-0.0541264 -0.238518 3.57149
-0.837014 -0.648549 3.85243
-0.747808 -0.713778 3.87452
-0.403416 -0.484488 3.51615
-0.81694 -0.758068 3.89373
-0.419856 -0.0363255 3.56841
-0.328597 -0.305085 3.34567
-0.619779 -0.725534 3.70123
-0.351631 -0.218782 3.38553
-0.579223 -0.76067 3.61428
0.132419 -0.307294 3.67494
-0.100387 -0.288185 3.53691
-0.0926697 -0.382855 4.09979
-0.105479 -0.531247 3.67997
-0.289789 -0.370244 4.01374
-0.17589 -0.150201 3.5841
0.207534 -0.343852 3.79986
-0.650947 -0.284904 3.92467
-0.569637 -0.367955 4.05012
-0.325364 -0.293816 3.33743
-0.510911 -0.701809 3.8855
-0.896671 -0.850228 3.92301
-0.129563 -0.341731 3.42017
-0.431132 -0.431026 3.9682
-0.548738 -0.570341 4.0706
-0.328557 -0.0393019 3.48748
-0.499708 -0.343142 3.99462
-0.443276 -0.676651 3.90593
-0.0516882 -0.0589471 3.28156
-0.261864 -0.0332916 3.63092
-0.124315 -0.133604 3.65636
-0.174847 -0.27125 3.47613
-0.409635 -0.44331 3.95271
-0.940611 -0.839425 3.83943
-0.730302 -0.286398 3.91837
-0.616108 -0.395368 4.04002
-0.0472014 -0.335202 3.66681
-0.463289 -0.674596 3.88769
-0.48169 -0.66144 3.78413
-0.152489 -0.259695 3.46882
-0.63904 -0.669235 3.66609
-0.209034 -0.205429 3.62898
-0.749604 -0.622229 3.68765
-0.446768 -0.337043 3.94104
-0.352407 -0.39588 3.42208
-0.767431 -0.666252 3.8194
-0.608283 -0.714847 3.72657
-0.24077 -0.402844 3.87206
-0.530061 -0.204022 3.5205
-0.716558 -0.334129 3.94152
-0.357301 -0.433098 3.42982
-0.394953 -0.636122 3.72396
-0.407474 -0.063607 3.40416
-0.277094 -0.0217764 3.55581
-0.519942 -0.490592 4.06453
-0.390871 -0.567508 3.60058
0.204873 -0.322986 3.76168
-0.52126 -0.644844 3.66868
-0.797294 -0.330013 3.95366
-0.248408 -0.254495 3.78642
0.0150763 -0.0298868 3.35098
-0.159158 -0.176836 3.43811
-0.785795 -0.566145 3.73754
-0.457967 -0.712496 3.96282
-0.484829 -0.688234 3.90328
-0.0949994 -0.612611 3.73817
-0.722778 -0.314928 3.73361
-0.314472 -0.461102 3.92657
-0.635578 -0.701397 3.90811
-0.354746 -0.511074 3.91003
-0.120507 -0.138043 3.68664
-0.108904 -0.4234 3.57537
-0.37713 -0.0508693 3.61917
-0.742674 -0.671198 3.68258
-0.161989 -0.243919 3.47333
0.0336925 -0.615951 3.76132
-0.0925016 0.0207471 3.37811
-0.61498 -0.219081 3.80486
-0.306378 -0.356718 3.3504
-0.228292 -0.334661 3.36811
-0.380666 -0.00327229 3.53864
-0.372246 -0.573939 3.79604
-0.151346 -0.255822 3.72938
-0.711603 -0.592133 4.03995
-0.217768 -0.467959 3.59476
-0.29759 -0.510058 3.65534
-0.214264 -0.648183 3.7971
-0.187754 -0.135168 3.50478
-0.773167 -0.720429 3.9151
-0.148341 -0.455058 3.69279
-0.950411 -0.781754 3.83959
-0.817567 -0.759696 3.90807
-0.858932 -0.672089 3.87937
-0.639238 -0.706051 3.75065
-0.815336 -0.596555 3.81902
-0.401279 -0.225882 3.33218
-0.28951 -0.494996 3.97171
-0.678598 -0.32969 3.62643
-0.726952 -0.308921 3.89893
0.154512 -0.338919 3.69324
-0.777912 -0.575006 3.73277
-0.962018 -0.805707 3.80759
-0.410133 -0.594174 3.69744
-0.110583 -0.117519 3.31035
-0.518176 -0.371496 3.45729
0.0768006 -0.338866 3.7323
-0.0651563 -0.322047 3.54589
-0.453497 -0.693808 3.83334
-0.581554 -0.232064 3.87271
-0.850413 -0.424341 3.78867
-0.193263 -0.398332 3.67344
-1.05443 -0.83529 3.87461
-0.108014 -0.0518923 3.44974
-0.220591 -0.108034 3.7021
-0.379028 -0.487199 3.52204
-0.140347 -0.384192 3.63004
-0.461883 -0.123955 3.47641
-0.190635 -0.29223 3.73725
-0.494381 -0.138242 3.75366
-0.542629 -0.287827 3.46739
-0.101152 -0.354819 4.02852
0.00528253 -0.29475 3.78217
-0.145859 -0.429741 3.7208
-0.171279 -0.061923 3.47223
-0.540736 -0.709416 3.77561
-0.847659 -0.639295 3.96516
-0.0499711 -0.694163 3.84892
-0.546615 -0.693723 3.78135
-0.313741 0.00444317 3.60978
-0.111866 -0.0228672 3.42836
-0.73596 -0.511736 3.68659
-0.805345 -0.472848 3.96477
-0.0664571 -0.214902 3.75536
-0.280582 -0.350152 3.44915
-0.225899 -0.0712087 3.45032
-0.877465 -0.768957 3.84803
-0.807105 -0.52798 3.899
-0.355216 -0.0360808 3.46316
-0.0964905 -0.0872624 3.31364
-0.604437 -0.421293 3.56206
-0.81436 -0.607956 3.7
-0.623097 -0.376636 4.09865
-0.276172 -0.473364 3.79124
-0.412573 -0.4073 3.94871
-0.151122 -0.363853 3.56802
-0.13331 -0.297912 3.95107
-0.367208 -0.339759 3.35703
-0.639059 -0.700037 3.91292
-0.401519 -0.019683 3.54775
-0.38466 -0.155911 3.33368
-0.612356 -0.202533 3.72109
-0.27855 -0.481586 3.74125
-0.649639 -0.293022 3.6061
-0.825053 -0.372552 3.8612
-0.645903 -0.421642 3.59744
-0.0597226 -0.226446 3.64953
-0.624847 -0.611581 3.66888
-1.01302 -0.932237 3.85323
-0.309904 -0.518597 3.73862
-0.0738646 -0.109524 3.3047
-0.519714 -0.381229 4.00078
-0.577537 -0.221457 3.85537
-0.767121 -0.370276 3.98139
-0.181857 -0.205466 3.75032
-0.726969 -0.747132 3.90493
-0.566672 -0.335854 3.52031
-0.485883 -0.0919862 3.56199
-0.620865 -0.230726 3.62264
-0.656203 -0.719682 3.9285
-0.25096 -0.0643697 3.59551
-0.247409 -0.552225 3.88281
-0.590793 -0.498866 4.08772
-1.05317 -0.934351 3.91751
-0.141864 0.0021311 3.37229
-0.429793 -0.11961 3.41918
-0.303275 -0.453349 3.49598
-0.627782 -0.71142 3.9562
-0.854146 -0.528022 3.74039
0.0369242 -0.576332 3.74577
-0.111645 -0.326576 3.45031
0.0718524 -0.332933 3.73327
-0.448225 -0.685079 3.89536
-0.444907 -0.66938 4.00672
-0.000408463 -0.634445 3.81304
-0.657989 -0.380024 4.02652
-0.121783 -0.0167651 3.42209
-0.685126 -0.296691 3.76458
-0.148828 -0.425237 3.68347
-0.475262 -0.152516 3.4697
-0.606949 -0.7099 3.75621
-0.3886 -0.562209 3.59251
-0.801919 -0.556855 3.78522
-0.287116 -0.228879 3.35911
-0.236921 -0.235752 3.44471
-0.671932 -0.269928 3.8625
-0.829019 -0.619849 3.86411
-0.526492 -0.643216 3.7033
-0.638188 -0.343283 3.60057
-0.432694 -0.0756001 3.59205
-0.499273 -0.410059 3.46053
-0.663857 -0.374615 3.62285
-0.730957 -0.591995 3.69177
-0.181888 -0.109866 3.51718
-0.819659 -0.638968 3.88515
-0.186118 -0.107628 3.7341
-0.229499 -0.0602132 3.61054
-0.895802 -0.857471 3.90682
-0.295317 -0.45545 3.81171
-0.193445 -0.321417 3.55711
-0.170286 -0.425887 3.59663
-0.751231 -0.682692 3.8842
-0.26957 -0.370597 3.43753
-0.240506 -0.286056 3.78621
-0.642112 -0.418693 4.0765
-0.259073 -0.30705 3.32233
-0.567116 -0.740121 3.87551
-0.165572 -0.364586 4.06441
-0.359785 -0.540842 3.84278
-0.423486 -0.327135 3.97981
-0.539609 -0.37853 4.00627
-0.926031 -0.85575 3.88278
-0.26935 -0.57434 3.91993
-0.822369 -0.569167 3.73797
-0.817281 -0.509917 3.95268
-0.0539277 -0.190846 3.82582
-0.314264 -0.661599 3.79636
-0.961585 -0.834556 3.92982
-0.237746 -0.49181 3.69511
-0.0386174 -0.281131 3.67518
-0.818054 -0.782248 3.86751
-0.220989 -0.109368 3.48378
-0.299344 -0.204703 3.40893
-0.563116 -0.484112 4.09206
-0.813976 -0.372805 3.83765
-0.0291918 -0.623851 3.76226
-0.376868 -0.235713 3.44922
-0.160417 -0.11056 3.32213
-0.579633 -0.380024 4.06329
-0.851347 -0.763357 3.83037
-0.622767 -0.568939 3.60996
-0.171899 -0.188507 3.60676
-0.411611 -0.574786 3.60196
-0.250656 -0.525252 3.90428
-0.230201 -0.263353 3.80132
-0.706436 -0.656916 3.71552
-0.616645 -0.748648 3.73168
-0.120577 -0.335933 3.79557
-0.745499 -0.684098 4.02574
-0.495484 -0.406392 4.04943
-0.600325 -0.606025 4.05961
-0.615553 -0.320732 4.04438
-0.623908 -0.427068 4.05734
-0.862022 -0.663529 3.90831
-0.406256 -0.273983 3.34804
-0.793643 -0.600755 3.88171
-0.31814 -0.223094 3.84188
-0.804696 -0.53102 3.91196
-0.74373 -0.323059 3.91278
-0.0552399 -0.350709 3.64603
-0.756363 -0.334709 3.95727
-0.52901 -0.541096 3.5858
-0.450086 -0.590335 4.02532
-0.0869863 -0.217852 3.78743
-0.181832 -0.342752 3.40462
-0.503017 -0.68554 3.82673
-0.446096 -0.0556455 3.53921
-0.632633 -0.418325 3.55682
-0.770797 -0.574631 3.68449
-0.0526858 -0.31067 4.01337
-0.578896 -0.735981 3.88765
0.0932525 -0.350034 3.68983
-0.610831 -0.256127 3.62107
-0.66235 -0.311779 3.6131
-0.16668 -0.370627 3.71284
-0.0956461 -0.479596 3.65339
-0.126025 -0.318324 3.44306
0.149773 -0.305834 3.77485
-0.630826 -0.656262 3.99925
-0.206 -0.379036 3.89156
-0.346149 -0.193809 3.83424
-0.36491 -0.0416895 3.6617
-0.350423 -0.216002 3.85154
-0.318605 -0.0431237 3.68062
-0.202865 -0.476742 3.6847
-0.486003 -0.137247 3.75911
-0.703633 -0.639107 3.64554
-0.133147 -0.400864 3.72913
-0.156979 -0.191837 3.56588
-0.0811379 0.00530362 3.36041
-0.750495 -0.436401 3.98472
-0.824969 -0.519128 3.72931
-0.463856 -0.101056 3.70077
-0.03742 -0.436267 3.58557
-0.45224 -0.296934 3.4148
-0.755096 -0.731958 3.88074
-0.402708 -0.119891 3.73001
-0.728382 -0.499097 3.67835
-0.128852 -0.144129 3.75533
-0.817245 -0.341769 3.83477
-0.30917 -0.428199 3.42345
-0.138194 -0.189078 3.547
-0.423827 -0.314133 3.37452
0.139326 -0.295087 3.76672
-0.419908 -0.5061 3.54053
-0.638507 -0.687011 3.6976
-0.717798 -0.410855 4.00685
-0.347746 -0.240366 3.33045
-0.592511 -0.324019 3.96418
-0.919569 -0.732824 3.85973
-0.581842 -0.374054 3.53521
-0.715799 -0.678631 4.02756
-0.458174 -0.429303 3.4524
-0.482792 -0.15593 3.79469
0.227964 -0.384092 3.79934
-0.206813 -0.0953424 3.4675
-0.59523 -0.225145 3.57402
-0.395104 -0.0944207 3.41077
-0.552727 -0.424342 4.111
-0.152148 -0.33703 3.44008
-0.0441719 -0.312401 3.74107
-0.622162 -0.399329 4.04513
-0.450437 -0.629871 3.7375
-0.0688606 -0.314428 3.51501
-0.373326 -0.0376974 3.64829
0.0298329 -0.501782 3.61499
-0.487478 -0.155447 3.49053
-0.634888 -0.459242 3.59409
-0.312422 -0.484354 3.95827
-0.0872793 -0.248499 3.54543
0.0511028 -0.507489 3.62717
-0.539157 -0.221549 3.48091
-0.625047 -0.328989 4.05356
-0.788288 -0.508928 3.66258
-0.398291 -0.0201023 3.56291
-0.381826 -0.0254924 3.61284
-0.487624 -0.137084 3.45965
-0.18551 -0.24988 3.73349
-0.629272 -0.71518 3.78451
-0.643065 -0.380823 3.56554
-0.363339 -0.24557 3.44801
-0.159361 -0.186605 3.67831
-0.30819 -0.163643 3.39632
-0.409828 -0.43665 3.44217
-0.36203 -0.146181 3.39761
-0.751674 -0.382084 3.75667
-0.29941 -0.589336 3.82622
-0.00533908 -0.295499 3.69822
-0.49181 -0.65737 3.75573
-0.898574 -0.67071 3.8755
-0.555209 -0.290494 3.51267
-0.792138 -0.35414 3.96206
-0.156519 -0.121948 3.67843
-0.644119 -0.566733 3.64533
-0.670002 -0.649839 4.04405
-0.400569 -0.132701 3.7833
-0.476974 -0.712552 3.90051
-0.454375 -0.456013 3.49729
-0.723648 -0.328777 3.82995
-0.290547 -0.0934806 3.70686
-0.467331 -0.400484 3.46583
-0.330164 -0.444742 3.867
-0.887566 -0.797464 3.9316
-0.635919 -0.710912 3.84219
-0.609563 -0.23011 3.75514
-0.898337 -0.78923 3.81819
-0.152385 -0.329937 3.54626
-0.872398 -0.804089 3.91045
-0.0858365 -0.233636 3.66115
-0.702914 -0.399295 3.62949
-0.395296 -0.360056 3.38175
-0.365423 -0.483181 3.89897
0.0430898 -0.273675 3.94615
-0.613717 -0.714184 3.76939
-0.785354 -0.399259 3.9228
-0.0919869 0.0372187 3.26382
-0.735786 -0.713987 3.97127
-0.809312 -0.450678 3.94814
-0.392123 -0.623653 3.80328
-0.109283 -0.67609 3.82013
-1.02259 -0.939688 3.84885
-0.603478 -0.695799 3.92969
-0.40328 -0.638701 3.93441
-0.322155 -0.42285 3.86285
-0.244926 -0.0812418 3.71632
-0.952701 -0.900501 3.91024
-0.435516 -0.649476 4.00727
-0.0970194 -0.113414 3.45693
-0.405885 -0.550699 3.60808
-0.336752 -0.430556 3.87874
-0.535397 -0.755556 3.7845
-0.516539 -0.513699 3.5606
-0.0907122 -0.039582 3.24196
-0.645971 -0.622768 4.02873
-0.533827 -0.177194 3.74073
-0.137885 -0.288787 3.70843
-0.341708 0.011764 3.53699
-0.158016 -0.00983739 3.37504
-0.808225 -0.477485 3.75438
-0.474226 -0.568179 4.02489
-0.157815 -0.326083 3.99713
-0.104686 -0.603924 3.75978
-0.797817 -0.738265 3.92537
-0.616802 -0.733053 3.74831
-0.945315 -0.852023 3.91748
-0.150637 -0.252181 3.92427
-0.50149 -0.20023 3.85431
-0.790756 -0.450114 3.97945
-0.0436574 -0.0856594 3.26467
-0.491697 -0.561092 4.0825
-0.535596 -0.187579 3.76635
-0.230312 -0.360842 3.34902
-0.726556 -0.631045 3.68011
-0.206096 -0.648049 3.76703
-0.851111 -0.769697 3.93564
-0.195763 -0.314754 3.77784
-0.187927 -0.577297 3.73384
-0.0319863 -0.267781 3.74589
-0.167655 -0.0964541 3.64089
-0.126391 -0.270149 3.91662
-0.649435 -0.275508 3.83973
-0.567667 -0.73962 3.87713
-0.208904 -0.455956 3.55303
-0.466231 -0.703612 3.8854
-0.474125 -0.13107 3.43974
-0.228821 -0.458833 3.90937
0.20557 -0.37685 3.7748
-0.667588 -0.542059 3.64481
-0.699662 -0.724724 3.7216
-0.611756 -0.713039 3.75962
-0.263236 -0.508999 3.65161
-0.283738 -0.453822 3.4639
-0.622126 -0.240355 3.75488
-0.524601 -0.246242 3.87516
0.000564359 -0.405571 3.67748
-0.274818 -0.483922 3.52574
-0.399513 -0.0802128 3.70911
-0.0699297 -0.36193 3.67764
-0.295877 -0.0824167 3.69602
-0.107659 -0.330949 3.52901
-0.59463 -0.373432 3.51833
-0.459653 -0.537949 3.57571
-0.513063 -0.602199 3.6498
-0.237711 -0.215667 3.45603
-0.521314 -0.251166 3.91576
-0.0697577 -0.261051 3.79019
-0.0532389 -0.0122576 3.37128
-0.673927 -0.26409 3.83708
-0.243762 -0.32555 4.00414
-0.152427 -0.448088 3.72331
-0.776487 -0.51635 3.71037
-0.547149 -0.466436 4.06043
-0.024101 -0.093464 3.31241
-0.428116 -0.232416 3.38418
-0.125736 -0.0732322 3.47058
0.0277886 -0.201008 3.88338
-0.379447 -0.0667893 3.46442
-0.824553 -0.535992 3.93657
-0.540152 -0.766232 3.62962
-0.554577 -0.704883 3.90496
-0.692384 -0.340983 3.97645
-0.493254 -0.190821 3.84317
-0.116835 -0.0851157 3.47095
0.0190436 -0.0400541 3.26567
-0.603241 -0.586171 3.61425
-0.837671 -0.442883 3.77758
-0.475722 -0.141321 3.43441
-0.673092 -0.616136 4.0348
-0.47948 -0.273874 3.40584
-0.835669 -0.409072 3.81343
-0.530224 -0.682009 3.94503
-0.0274239 -0.0500759 3.38937
-0.327912 -0.500973 3.82686
-0.982964 -0.883523 3.94171
-0.476002 -0.389347 4.01049
-0.477349 -0.714512 3.88715
-0.825042 -0.587164 3.88464
-0.1937 -0.24511 3.48042
-0.551446 -0.20915 3.50789
-0.636516 -0.228303 3.78557
-0.832344 -0.390583 3.83752
-0.838769 -0.610562 3.92239
-0.860072 -0.783336 3.83173
-0.737252 -0.337233 3.7294
-0.74018 -0.344568 4.02326
-0.735271 -0.675478 4.03499
-0.378129 -0.494909 3.94558
-0.238047 -0.524005 3.80595
-0.85348 -0.585564 3.93396
-0.822713 -0.585488 3.84999
-0.245357 -0.306632 3.84815
-0.446948 -0.135971 3.73549
-0.695617 -0.68843 4.01018
-0.696566 -0.718609 3.89217
-0.672747 -0.257988 3.73365
-0.870018 -0.609431 3.89487
-0.464178 -0.413008 3.98689
-0.387521 -0.108554 3.71849
-0.121114 -0.207946 3.87192
-0.360606 -0.42837 3.95996
-0.584819 -0.292341 3.92496
-0.7973 -0.595009 3.93814
-0.510124 -0.487391 3.51153
-0.0962655 -0.107499 3.41772
-0.25643 -0.451487 3.91414
-0.41073 -0.0268714 3.47567
-0.0905375 -0.440359 3.52798
-0.750349 -0.290845 3.89529
-0.794138 -0.525852 3.95088
-0.292465 -0.513648 3.8885
-1.08407 -0.843913 3.82902
-0.405959 -0.548074 4.01738
-0.197675 -0.211491 3.48414
-0.283693 -0.146883 3.47697
-0.68468 -0.666393 3.71534
-0.632467 -0.293472 3.578
-1.04153 -0.880311 3.9455
-0.487122 -0.472982 4.06377
-0.423847 -0.0463006 3.455
-0.574351 -0.713455 3.77605
-0.794392 -0.59728 3.87541
-0.67277 -0.674052 3.71831
-0.79617 -0.71903 3.94817
-0.18012 -0.153089 3.706
-1.05446 -0.82357 3.81387
-0.451996 -0.463228 3.47468
-0.899867 -0.76431 3.84236
-0.336791 -0.260813 3.87181
-0.669891 -0.348691 4.04111
-0.622574 -0.693889 3.73442
-0.439497 -0.359435 3.42922
-0.565525 -0.72482 3.69335
-0.067716 -0.344799 3.63673
-0.252156 -0.366915 3.35465
-0.323236 -0.173802 3.41235
-0.51175 -0.192638 3.79796
-0.832172 -0.766139 3.96089
-0.708268 -0.296753 3.98532
-0.208384 -0.570201 3.76916
-0.192639 -0.194822 3.39658
-0.335939 -0.399961 3.95995
-0.550667 -0.322314 3.9913
-0.788145 -0.342173 3.89908
-0.317973 -0.0186888 3.55756
-0.184849 -0.0996273 3.47754
-0.706786 -0.626148 3.69601
-0.595147 -0.346367 3.54901
-0.275667 -0.0627693 3.6052
-0.227955 -0.467933 3.55065
-0.69169 -0.283654 3.97207
-0.409047 -0.609333 3.78712
-0.416724 -0.61505 3.77558
-0.665996 -0.308489 4.02374
-0.530829 -0.249496 3.49472
-0.499543 -0.453534 3.48472
-0.807915 -0.586233 3.6872
-0.0714569 -0.103244 3.2966
-0.87021 -0.641799 3.92741
-0.132189 -0.129932 3.4922
-0.628018 -0.323662 4.04786
-0.566428 -0.627231 3.67462
-0.821044 -0.515275 3.94359
-0.43051 -0.265175 3.36338
-0.387996 -0.608515 3.86014
-0.140237 -0.114211 3.61233
-0.643004 -0.249596 3.6456
-0.419541 -0.467188 3.47005
-0.700888 -0.336617 3.65748
-0.540601 -0.466999 4.0562
0.0704023 -0.238746 3.90542
-0.252474 -0.647041 3.83234
-1.01327 -0.803169 3.89567
-0.767602 -0.563482 3.72219
-0.117292 -0.135315 3.3305
-0.249289 -0.133966 3.44034
-0.122143 -0.158901 3.36355
-0.153163 -0.604964 3.74464
-0.472822 -0.303976 3.92897
-0.332236 -0.535225 3.65887
0.125592 -0.271427 3.71483
-0.140105 -0.257163 3.89899
-0.07287 -0.246307 3.65496
-0.438709 -0.625571 3.95186
-0.964483 -0.807607 3.80711
-0.61895 -0.706392 3.96554
-0.492153 -0.53691 4.04744
-0.257465 -0.402085 3.98915
-0.505222 -0.509464 4.05683
-0.415534 -0.485736 3.48776
-0.637296 -0.253501 3.62524
-0.681431 -0.695268 3.81446
-0.791881 -0.536364 3.74141
0.0571711 -0.263965 3.71448
-1.00262 -0.920786 3.88204
0.0101172 -0.331732 3.6977
-0.485213 -0.189891 3.4587
-0.604564 -0.686579 3.94963
-1.06295 -0.895468 3.79854
-0.701171 -0.449218 3.62218
-0.875379 -0.713439 3.85555
-0.72446 -0.724813 3.97261
-0.516563 -0.53853 4.08086
-0.19066 -0.074599 3.43519
-0.549042 -0.710659 3.71838
-0.835728 -0.378803 3.79457
-0.486965 -0.318973 3.41975
-0.479941 -0.685961 3.88192
-0.472395 -0.0946162 3.66993
-0.18901 -0.497933 3.76297
-0.111905 -0.0452293 3.44705
-0.458065 -0.656017 3.91625
-0.558451 -0.700407 3.91499
-0.203505 -0.538688 3.77512
-0.507482 -0.686009 3.97759
-0.238692 -0.273348 3.40905
-0.138487 -0.302628 3.95633
-0.773991 -0.580998 3.72565
-0.177018 -0.148449 3.70221
-0.404185 -0.237066 3.33655
-0.437488 -0.575881 4.05137
-0.536373 -0.73945 3.80981
-0.293101 -0.411451 3.87527
-0.84178 -0.492978 3.83566
-0.0937226 -0.327884 4.02928
-0.216738 -0.133959 3.36796
-0.68015 -0.654382 4.01127
-0.648811 -0.348891 4.04045
-0.61371 -0.641011 3.69314
-0.860569 -0.401546 3.84599
-0.312503 -0.437357 3.43403
-0.398886 -0.225056 3.33007
-0.201093 -0.112309 3.52708
-0.196562 -0.308919 3.85654
-0.687732 -0.311871 3.8874
-0.664668 -0.313882 4.03103
-0.248771 -0.518207 3.97923
0.0607078 -0.536325 3.66369
-0.642283 -0.374211 3.59614
-0.024761 -0.0916252 3.33642
-0.53701 -0.369933 3.47062
-1.08289 -0.823699 3.8694
-0.50149 -0.410766 4.00936
-0.687484 -0.344919 3.96505
-0.553908 -0.715577 3.8739
-0.707735 -0.428317 4.04811
-0.377507 -0.310416 3.89194
-0.380624 -0.558629 3.86438
-0.00311822 -0.025507 3.32635
-0.799439 -0.540488 3.73614
-0.764568 -0.645276 4.02788
-0.544032 -0.162084 3.54922
0.0157756 -0.56088 3.74307
-0.156328 -0.109332 3.47477
-0.126084 -0.317976 3.7033
-0.436746 -0.0540408 3.47959
-0.751167 -0.364852 3.93716
-0.565316 -0.429919 3.53592
-0.406878 -0.263618 3.87812
-0.581849 -0.176672 3.70616
-0.199993 -0.335365 3.94229
-0.155635 -0.190159 3.64038
-0.125348 -0.144062 3.43291
-0.320316 -0.429268 3.8923
-0.471643 -0.497215 4.03887
-0.174662 -0.103901 3.35968
-0.503457 -0.484769 4.05024
-0.152265 -0.371106 3.61451
-0.217316 -0.0704182 3.7005
-0.34963 -0.45324 3.45036
-0.190034 -0.205116 3.48252
-0.524239 -0.485665 4.06651
-0.419836 -0.525256 3.56484
-0.391022 -0.198514 3.34779
-0.296223 -0.0834808 3.69713
-1.03589 -0.818332 3.92917
-0.459958 -0.208851 3.83708
-0.768901 -0.465562 4.01124
-0.464525 -0.338837 3.40975
-0.753207 -0.61742 3.68798
-0.755609 -0.692388 3.88794
-0.284843 -0.675171 3.81369
-0.576232 -0.411783 4.05646
-0.928825 -0.694522 3.91745
-0.574674 -0.448761 4.06544
-0.319382 -0.159465 3.4292
-0.262698 -0.414523 3.94657
-0.559188 -0.602989 4.02856
-0.366533 -0.282501 3.35207
-0.228259 -0.0413679 3.58803
-0.639219 -0.313696 3.61658
-0.256198 -0.257795 3.36464
-0.573127 -0.730997 3.90417
-0.478853 -0.386507 3.98483
-0.578804 -0.737455 3.72453
-0.617354 -0.729084 3.74239
-0.336371 -0.188893 3.79973
-0.782185 -0.596475 3.77887
-0.241965 -0.321552 3.99911
-0.759921 -0.323466 3.89588
-0.661699 -0.693048 3.73499
-0.56192 -0.726098 3.75789
-0.094342 -0.340516 3.59503
-0.804746 -0.654975 3.8683
-0.164414 -0.0470923 3.38228
-0.287062 -0.0641994 3.6769
-0.614182 -0.317479 3.57855
-0.185897 -0.0939702 3.47164
-0.48747 -0.180526 3.46794
-0.0152232 -0.296934 3.76165
-0.0558497 -0.632165 3.80305
-1.10256 -0.871796 3.88448
-0.537471 -0.289819 3.95757
-0.785667 -0.352796 3.96988
-0.129749 -0.374747 4.03305
-0.450601 -0.38921 3.42462
-0.864231 -0.633743 3.91204
-0.291284 -0.461855 4.00006
-0.230811 -0.48 3.61454
-0.37527 -0.222 3.33773
-0.654045 -0.461568 3.58194
-0.593522 -0.204639 3.59978
-0.11764 -0.386925 4.10091
-0.28558 -0.522701 3.89393
-0.181112 -0.374998 3.42992
-0.573016 -0.758948 3.76216
-1.04246 -0.854701 3.79509
-0.0627388 -0.424518 3.6291
-0.655215 -0.712003 3.72078
-0.0668206 -0.363841 3.72211
-0.215619 -0.430953 3.66666
-0.615842 -0.22476 3.62073
-0.081732 -0.285505 3.97658
-0.129453 -0.0197835 3.37295
-0.672096 -0.696512 3.90946
-0.266363 -0.0708195 3.7122
-0.166204 -0.369789 4.07146
-0.0779499 -0.182143 3.65593
-0.651406 -0.276053 3.83683
-0.401438 -0.572255 3.94152
-0.417526 -0.677577 3.92415
-0.151891 -0.391634 3.44596
0.014097 -0.315774 3.76997
-0.632691 -0.739495 3.79833
-0.159448 -0.449837 3.72079
-0.910603 -0.733349 3.96488
-0.78704 -0.569399 4.02637
-0.145336 -0.301411 3.8277
-0.580411 -0.415357 4.04677
-0.176661 -0.53997 3.73946
-0.430821 -0.657398 3.83888
-0.526454 -0.565047 4.07108
-0.180669 -0.404982 3.44274
-0.376968 -0.281492 3.35791
-0.453882 -0.643579 3.78366
-0.703579 -0.688522 3.87367
-1.03942 -0.792002 3.8925
-0.196534 -0.379358 3.90898
-0.222006 -0.0152652 3.62093
-0.320716 -0.475931 3.83803
-0.358847 -0.437776 3.435
-0.258902 -0.0960419 3.5769
-0.835358 -0.527945 3.8658
-0.726683 -0.396582 3.69815
-0.426242 -0.193647 3.38372
-0.656812 -0.272229 3.80589
-0.556401 -0.241473 3.89793
0.0441026 -0.265237 3.71162
-0.114798 -0.0126849 3.37445
-0.771436 -0.562783 3.65257
-0.314988 -0.476039 3.52802
-0.0535858 -0.300779 4.0005
-0.307119 -0.427758 3.87747
-0.20421 -0.541158 3.77722
-0.842832 -0.662932 3.84582
-0.522548 -0.692363 3.97231
0.0240554 -0.256937 3.69826
0.0469336 -0.312379 3.72567
-0.0560292 -0.57506 3.70259
-0.436725 -0.35729 3.42665
-0.69793 -0.350435 3.68758
-0.442914 -0.0820487 3.5324
-0.0704761 -0.370086 3.72356
0.0110596 -0.335978 3.70304
-0.60191 -0.194898 3.73363
-0.0965025 -0.235102 3.58867
-0.0926877 -0.292584 3.54081
0.0622558 -0.508204 3.66207
-0.803159 -0.601705 3.72854
-0.182297 -0.204697 3.63869
-0.750229 -0.692756 3.94153
0.0267214 -0.396346 3.68778
-0.486214 -0.481574 4.06576
-0.552612 -0.222089 3.87014
-0.864681 -0.827765 3.86476
-0.254832 -0.259748 3.40482
-0.25159 -0.497779 3.62748
-0.52254 -0.632146 4.0333
-0.843223 -0.797142 3.85446
-0.771918 -0.557327 4.00218
-0.69006 -0.275526 3.83774
-0.223572 -0.490626 3.75627
-0.611663 -0.268108 3.60886
-0.806242 -0.671543 3.86322
-0.13217 -0.0436795 3.28304
-0.148316 -0.225883 3.69683
-0.100736 -0.395699 3.60868
-0.648278 -0.670165 3.72571
-0.386169 -0.497588 3.95463
0.0478172 -0.491755 3.63626
-0.143398 -0.303634 3.81015
-0.288667 -0.672659 3.81212
-0.0568797 -0.624111 3.79261
-0.749058 -0.668159 3.74382
-0.198402 -0.411535 3.66112
-0.242023 -0.298699 3.4395
-0.48204 -0.116859 3.62238
-0.0570739 -0.0780371 3.41794
-0.296155 -0.168841 3.40393
-0.504356 -0.699265 3.82624
-0.109353 -0.0289305 3.29472
-0.23526 -0.34797 4.03393
-0.00571202 -0.365838 3.68324
-0.223429 -0.187125 3.77293
-0.645766 -0.675622 3.70044
-0.487064 -0.447984 3.47615
-0.341706 -0.125081 3.77395
-0.613656 -0.719141 3.93711
-0.121095 -0.251824 3.50797
-0.313304 -0.657249 3.76313
-0.165296 -0.111593 3.70494
-0.958782 -0.92202 3.84121
-0.203993 -0.21977 3.77015
-0.678497 -0.35972 4.01434
-0.829811 -0.603061 3.84363
-0.281996 -0.316672 3.46043
-0.594396 -0.19172 3.74786
-0.427889 -0.626714 3.8234
-0.982616 -0.865957 3.82712
-0.314562 -0.593731 3.80663
0.0393584 -0.287392 3.96656
-0.636077 -0.532579 3.62164
-0.766715 -0.693551 3.84091
-0.587823 -0.675358 3.73262
-0.131599 -0.176046 3.39093
-0.361307 -0.131284 3.50788
-0.287747 -0.17149 3.79728
-0.81836 -0.487541 3.764
-0.244019 -0.465634 3.92906
-0.295108 -0.313721 3.83606
-0.310361 -0.550697 3.72241
-0.0383741 -0.684729 3.8405
-0.692106 -0.401972 3.64979
-0.065655 -0.672389 3.81887
-0.493308 -0.157755 3.45098
-0.131563 -0.0383077 3.31965
-0.746095 -0.303122 3.88664
-0.638064 -0.388229 3.56046
-0.345106 -0.551953 3.70295
-0.24523 -0.412619 3.86993
-0.311288 -0.501679 3.84555
-0.658476 -0.683436 3.96212
-0.391843 -0.469367 3.9649
-0.851328 -0.608942 3.86095
-0.69573 -0.7114 3.69487
-0.0554347 0.0203841 3.23734
-0.405214 -0.598847 3.92144
-0.299164 -0.0128663 3.58215
-0.0986926 -0.0391129 3.24482
-0.806245 -0.448234 3.74131
-0.582102 -0.179684 3.72859
-0.472737 -0.435558 3.48895
-0.455313 -0.179916 3.80095
-0.414261 -0.0393267 3.5999
-0.630833 -0.507217 3.60779
-0.553853 -0.650906 4.02372
-0.0794952 -0.293074 3.72446
-0.368301 -0.0221113 3.54405
-0.501463 -0.720196 3.76078
-0.116411 -0.0928396 3.32244
-0.287896 -0.165264 3.45613
-0.572266 -0.404009 4.09099
-0.50302 -0.224116 3.88487
-0.636473 -0.464279 3.5964
-0.481757 -0.285503 3.94508
-0.201997 -0.586599 3.79164
-0.185692 -0.493784 3.70581
-0.0288352 -0.266162 3.94813
-0.0398608 -0.103929 3.33364
-0.185025 -0.0862675 3.37176
-0.0342448 -0.653579 3.8336
-0.0942726 -0.0578218 3.28991
-0.361625 -0.0524685 3.48268
-0.592891 -0.708289 3.89296
-0.715837 -0.66856 3.76798
-0.668213 -0.520941 4.0745
-0.60297 -0.418198 3.53242
-0.527418 -0.486597 3.54412
-0.825103 -0.5932 3.91859
-0.343589 -0.420554 3.88685
-0.301068 -0.0143383 3.64448
-0.530009 -0.375338 4.0282
-0.292714 -0.116257 3.62724
-0.732001 -0.670174 3.68824
-0.0844989 -0.2656 3.74249
-0.785157 -0.321724 3.9477
-0.381458 -0.330492 3.9763
-0.263154 -0.382656 3.42048
-0.346805 -0.161928 3.80872
-0.808945 -0.51759 3.97386
-0.205035 -0.645052 3.79757
-0.609551 -0.347084 3.56391
-1.02496 -0.776438 3.8813
-0.220355 -0.313615 3.39759
-0.127106 -0.376057 3.70268
-0.671221 -0.691119 3.93822
-0.588877 -0.219323 3.76963
-0.352603 -0.568113 3.64001
-0.490288 -0.741166 3.80974
-0.671078 -0.688569 3.74609
-0.63902 -0.647432 4.04093
-0.300998 -0.383458 4.0084
-0.946993 -0.86393 3.90602
-0.196804 -0.386431 3.44021
-0.272578 -0.113814 3.59759
-0.676319 -0.725135 3.74628
-0.478676 -0.651938 3.94646
-0.726605 -0.304227 3.7979
-0.0206271 -0.0551522 3.3081
-0.7251 -0.615665 3.71172
-0.226473 -0.124201 3.50486
-0.487135 -0.327418 3.42222
-0.491334 -0.258024 3.44706
-0.130937 -0.327333 4.0231
-0.480425 -0.672766 3.86959
-0.440105 -0.599156 3.97422
-0.473008 -0.686352 3.86211
-0.492191 -0.340824 3.42966
-0.839569 -0.467561 3.76083
-0.386615 -0.39183 3.42726
-0.464837 -0.477764 3.4899
-0.7766 -0.387111 3.81467
-0.691386 -0.325937 3.70247
-1.02856 -0.918411 3.90522
-0.0939878 -0.208898 3.78333
-0.687918 -0.608021 4.06348
-0.118337 -0.301954 3.79502
-0.135216 -0.362006 4.04977
-0.544586 -0.17697 3.60193
-0.393909 -0.446721 3.93733
-0.203369 -0.0899619 3.45895
-0.536238 -0.700254 3.67259
-0.970862 -0.936266 3.86938
-0.478388 -0.532104 4.07151
-1.08715 -0.830939 3.87447
-0.246012 -0.0625646 3.55082
0.0167587 -0.291271 3.78409
-0.329019 -0.187046 3.35398
-0.87041 -0.817294 3.84477
-0.423464 -0.214669 3.37948
-0.153837 -0.385002 3.4246
-0.175615 -0.0801538 3.45631
-0.619031 -0.563598 4.07495
0.0107699 -0.310936 3.98908
-0.0782192 -0.0909581 3.43977
-0.190358 -0.414773 3.54316
-0.612692 -0.424821 3.56947
-0.693778 -0.469223 4.0357
-0.615304 -0.376241 4.03592
-0.403505 -0.511692 3.5162
-0.430738 -0.411382 3.9909
-0.35971 -0.483484 3.92782
-0.233131 -0.489495 3.69218
-0.205472 -0.0537065 3.43342
-0.358028 -0.125602 3.51338
-0.391124 -0.446247 3.93448
-0.718747 -0.531115 3.64881
-0.458633 -0.140454 3.45078
-0.416738 -0.541106 3.94409
-0.611977 -0.396395 3.56434
-0.46202 -0.451774 3.46899
0.0187893 -0.510632 3.62464
-0.257501 -0.480593 3.53703
-0.273104 -0.158657 3.45983
-0.387564 -0.0336944 3.53126
-0.448553 -0.497303 3.50271
-0.807982 -0.360428 3.86272
-0.249131 -0.634409 3.79187
-0.320755 -0.339581 3.86168
-0.748737 -0.670743 3.75466
-0.654183 -0.341 4.03142
-0.659511 -0.513623 3.60188
-0.325849 -0.586743 3.80131
-0.556667 -0.185691 3.71725
-0.803064 -0.398522 3.82547
-0.653527 -0.331103 3.95892
-0.520353 -0.122802 3.64952
-0.795285 -0.434509 3.71799
-0.996924 -0.815365 3.94818
-0.00693487 0.0427537 3.3438
-0.065654 -0.679859 3.8284
-0.840264 -0.608112 3.9699
-0.394894 -0.0450156 3.64378
-0.662443 -0.396312 3.58453
-0.528518 -0.371339 3.46478
-0.277132 -0.045312 3.53458
-0.0573211 -0.409483 3.58922
-0.12191 -0.30627 3.49865
-0.119361 -0.135865 3.68515
-0.995794 -0.759293 3.91525
-0.634628 -0.260908 3.88928
-0.735392 -0.360438 3.96365
-0.664195 -0.315095 3.65997
-0.306095 -0.329654 3.32778
-0.0907051 0.0525227 3.33681
-0.628781 -0.246721 3.76996
-0.459226 -0.537887 4.07923
-0.536243 -0.163279 3.64546
-0.644159 -0.273317 3.84434
-0.801259 -0.545819 3.70493
-1.05971 -0.881064 3.93748
-0.0991687 -0.329282 3.99618
-0.70364 -0.684222 3.70455
-0.475302 -0.361794 3.96874
-0.504575 -0.156575 3.52815
-0.158872 -0.161664 3.39914
-0.323556 -0.526045 3.77263
-0.163279 -0.128098 3.61706
-0.543283 -0.724336 3.67556
-0.584351 -0.701813 3.91421
-0.537352 -0.309686 3.46173
-0.172788 -0.356647 4.0529
-0.490662 -0.347599 3.99383
-0.771903 -0.562062 3.68124
-0.608971 -0.685671 3.7262
-0.151263 -0.0455158 3.30261
-0.774721 -0.612128 3.66998
-0.132724 -0.383815 3.69529
0.0661205 -0.28173 3.63113
-0.959322 -0.864456 3.80968
-0.470316 -0.13222 3.48346
-0.0656763 -0.226519 3.80524
-0.406308 -0.665157 3.92037
-0.487978 -0.381247 3.46752
-0.576147 -0.39921 4.09135
-1.06967 -0.858993 3.83775
-0.212871 -0.320385 3.39307
-0.474914 -0.184341 3.44699
-0.0230929 -0.338397 3.68633
-0.835072 -0.537985 3.75343
-0.322614 -0.365344 3.89551
0.0418629 -0.24217 3.90565
-0.473476 -0.710663 3.79785
0.0466908 -0.609578 3.75549
-0.227879 -0.202749 3.78184
-0.195969 -0.633466 3.75031
-0.169899 -0.207665 3.71468
-0.478981 -0.530546 4.06639
-0.198352 -0.610158 3.77257
-0.532424 -0.709401 3.78219
-0.768542 -0.37676 3.81335
-0.490837 -0.16125 3.4905
-0.0959552 -0.259795 3.66712
-0.253227 -0.250256 3.81524
-0.206829 -0.626488 3.77853
-0.199563 -0.317671 3.4091
-0.196857 -0.261215 3.74466
-0.123821 -0.133225 3.36869
-0.57364 -0.689469 3.98607
-0.481787 -0.546018 3.58508
-0.070892 -0.61213 3.77524
-1.0431 -0.800173 3.90305
-0.356919 -0.428972 3.45575
-0.639795 -0.538413 3.62682
-0.248801 -0.483305 3.56126
-0.0860281 0.0506967 3.34728
-0.149724 -0.297863 3.52414
-0.549714 -0.678851 3.7516
-1.05921 -0.890422 3.7956
-0.468357 -0.502856 3.5404
0.201223 -0.368916 3.75213
-0.556945 -0.209495 3.56699
-0.651893 -0.592323 4.06746
-0.380887 -0.102018 3.71087
-0.289656 -0.527328 3.74443
-0.301414 -0.0893145 3.47017
-0.381536 -0.600638 3.85966
-0.40543 -0.592331 3.63911
-0.502701 -0.150034 3.53612
-0.581192 -0.678783 4.00108
-0.164561 -0.473686 3.73484
-0.0223268 -0.0191789 3.23552
-0.476751 -0.40882 3.4751
-0.642484 -0.494377 3.61031
0.192511 -0.322008 3.77257
-0.421315 -0.619872 3.82794
-0.417716 -0.357679 3.93591
-0.615101 -0.763596 3.75128
-0.27788 -0.0787028 3.72135
-0.675086 -0.285658 3.77904
-0.0757954 -0.558985 3.70661
-0.767806 -0.625059 3.6923
-0.822286 -0.371393 3.77316
-0.0870686 -0.335834 3.69327
-0.322115 -0.507032 3.53354
-0.302452 -0.401182 3.99237
-0.824137 -0.575383 3.82353
-0.133216 -0.158247 3.70202
-0.49005 -0.26863 3.44505
-0.105043 -0.184037 3.79443
-0.216201 -0.0676602 3.45844
-0.433795 -0.698449 3.91738
-0.457802 -0.098343 3.61969
-0.582197 -0.186669 3.76111
-0.709549 -0.382925 3.64255
-0.0244221 0.0397913 3.35936
-0.230639 -0.329961 3.94967
-0.807661 -0.470134 3.95892
-0.398753 -0.359589 3.98244
-0.733765 -0.55233 4.03059
-0.588651 -0.320427 3.54529
-0.428047 -0.618126 3.96945
-0.337823 -0.437091 3.91753
-0.171109 -0.0575881 3.41667
-0.145529 -0.37743 3.53947
-0.497371 -0.730479 3.87312
-0.304574 -0.286918 3.86312
-0.445261 -0.606517 4.03834
-0.258609 -0.125561 3.41232
-0.768038 -0.639264 3.67927
-0.00242203 -0.260062 3.5857
-0.821322 -0.342262 3.86655
-0.814293 -0.602437 3.69526
-0.321459 -0.556279 3.66878
-0.32175 -0.0579466 3.66459
-0.504732 -0.291184 3.43006
-0.424665 -0.6489 3.78173
-0.326419 -0.394468 3.41801
-0.146094 -0.332448 3.56431
-0.130749 -0.369079 4.03801
-0.613709 -0.206046 3.67409
-0.126606 -0.262288 3.70923
-0.766109 -0.356668 3.91979
-0.715667 -0.575125 3.66161
-1.09238 -0.873736 3.84181
-0.855425 -0.608382 3.97364
-0.596979 -0.749166 3.75498
-0.471989 -0.738901 3.91367
-0.159797 -0.177551 3.44054
-0.274131 -0.490841 3.67964
-0.122878 -0.337823 3.46926
-0.635875 -0.232073 3.66667
-0.8229 -0.677371 3.83637
-0.173544 -0.414562 3.47329
-0.433382 -0.675626 3.87024
-0.190126 -0.349841 4.04059
-0.298179 -0.524525 3.93607
-0.124913 -0.546484 3.65708
-0.71898 -0.354257 3.72348
-0.09713 -0.379356 4.09465
-0.687088 -0.490909 4.04174
-0.111961 -0.288317 3.94196
-0.53239 -0.716907 3.82823
-0.307065 -0.319317 3.32017
-0.695924 -0.29916 3.69174
-0.816537 -0.503755 3.77479
-0.657063 -0.36254 4.02072
-0.108177 -0.362572 3.45314
-0.411613 -0.638472 3.84423
-0.176137 -0.176771 3.59682
-0.28002 -0.394696 3.98547
-0.318702 -0.371617 4.05091
-0.50008 -0.403007 4.04778
-0.824979 -0.356125 3.8163
-0.754954 -0.576681 3.67803
-0.749952 -0.348024 3.92435
-0.296093 -0.56864 3.89912
-0.726608 -0.576827 3.6961
-0.671002 -0.321622 3.66615
-0.0171172 -0.317846 3.67596
-0.799305 -0.404083 3.80279
-0.700858 -0.678024 3.75996
-0.524302 -0.493019 4.10976
-0.527502 -0.640646 4.02739
-0.435832 -0.146955 3.75895
-0.0190219 -0.307425 3.75971
-0.198065 -0.30328 3.54908
-0.241598 -0.0874958 3.47521
-0.654456 -0.698831 3.67551
-0.479046 -0.741814 3.91981
-0.709831 -0.494828 4.05934
-0.568543 -0.720291 3.62926
-0.500318 -0.739876 3.78724
-0.315869 -0.0111933 3.63492
-0.209162 -0.330351 3.91633
-0.689343 -0.670181 3.73179
-0.479846 -0.0853109 3.58422
-0.544596 -0.716335 3.87245
-0.427902 -0.605423 3.64712
-0.0998472 0.0353129 3.27099
-0.334797 -0.0906779 3.73748
-0.545525 -0.212796 3.81386
-0.396903 -0.396684 3.93404
-0.364231 -0.164261 3.33855
-0.532742 -0.436398 4.10785
-0.592585 -0.737496 3.762
-0.273291 -0.0122502 3.64844
-0.819389 -0.378851 3.83813
-0.466474 -0.379316 3.45367
-0.761817 -0.383117 3.72372
-0.156762 -0.323254 3.56255
-0.995886 -0.837059 3.92583
-0.16389 -0.163929 3.53624
-0.456788 -0.603929 3.67212
-0.40459 -0.359887 3.41301
-0.196793 -0.0639343 3.64074
-0.0949869 -0.36222 4.03699
-0.81968 -0.381124 3.83077
-0.777737 -0.55921 3.68598
-0.453871 -0.694622 3.83223
-0.528811 -0.529489 4.05798
-0.440359 -0.663143 3.79957
-0.526993 -0.581364 4.03725
-0.577256 -0.170968 3.66923
-0.363363 -0.409193 3.90776
-0.818563 -0.393081 3.79793
-0.0294886 0.0380173 3.32471
-0.519505 -0.577032 4.06545
-0.378051 -0.327655 3.92599
-0.761585 -0.523359 4.00215
-0.0840506 -0.292843 3.5497
-0.651347 -0.351057 4.04286
-0.291127 -0.298419 3.85647
-0.30593 -0.320986 3.32104
-0.295071 -0.0926569 3.61643
-0.889578 -0.659931 3.92613
0.0405823 -0.516273 3.6351
-0.661173 -0.515481 3.63044
-0.223033 -0.304825 3.407
-0.922361 -0.794285 3.93926
-0.139378 -0.186921 3.41048
-0.413086 -0.231913 3.85549
-0.196228 -0.122528 3.75187
-0.482554 -0.688125 3.86242
-0.357622 -0.553114 3.87881
-0.572342 -0.171815 3.72364
-0.302977 -0.466163 3.47512
-0.234793 -0.0981374 3.39272
-0.687061 -0.434549 3.60839
-0.246181 -0.385071 3.41173
-0.109938 -0.32955 4.02896
-0.0158169 -0.282833 3.92467
-0.736099 -0.413443 3.70266
-0.658004 -0.275278 3.72308
-0.303108 -0.0325439 3.51955
-0.426498 -0.614255 3.73554
-0.465273 -0.0775727 3.51361
-0.592749 -0.583989 3.63789
-0.761161 -0.335758 3.823
-0.0522548 -0.291228 3.6929
-0.157527 -0.588106 3.69764
-0.963553 -0.896958 3.81135
-0.188706 -0.0719334 3.66497
-0.638233 -0.231046 3.79464
-0.682652 -0.398707 3.60616
-0.00687789 -0.502259 3.61493
-0.75279 -0.351144 3.92972
-0.273281 -0.5079 3.88579
-0.644803 -0.337794 3.61121
-0.247545 -0.367339 3.40614
-0.746276 -0.752603 3.92419
-0.513208 -0.713189 3.87176
-0.692136 -0.317028 4.02739
-0.242659 -0.507987 3.95863
-0.435315 -0.615516 3.7198
-0.0697162 -0.0611399 3.28477
-1.02847 -0.836163 3.83276
-0.501701 -0.133102 3.62367
-0.683571 -0.722048 3.86558
-0.848383 -0.445154 3.772
-0.0666979 -0.0451295 3.42318
-0.378473 -0.480973 3.94965
-0.885174 -0.694839 3.8748
-0.415796 -0.0668187 3.40528
0.000452362 -0.295405 3.95986
-1.08924 -0.866416 3.91278
-0.784776 -0.608175 3.69017
-0.815293 -0.468297 3.85666
-0.33644 -0.544094 3.75218
-0.573984 -0.393391 4.09963
-0.747983 -0.347772 3.92906
-0.234134 -0.267962 3.41855
-0.176664 -0.135232 3.49796
-0.277532 -0.520712 3.70517
-0.339217 -0.405469 3.39993
-0.788575 -0.632683 3.7827
-0.195015 -0.483804 3.73967
-0.590731 -0.688388 3.64948
-0.114528 -0.616389 3.77425
-0.393355 -0.24553 3.33067
-0.451977 -0.0625982 3.58234
-0.359714 -0.0187099 3.61956
0.0118963 -0.305935 3.61653
0.174843 -0.354788 3.78742
-0.269634 -0.106357 3.46318
-0.0830331 0.0573161 3.30229
-0.802631 -0.607235 3.76678
-0.093278 -0.214414 3.57005
-0.458106 -0.0658348 3.55636
-0.442929 -0.660848 3.94943
-0.392161 -0.0202578 3.45991
-0.64965 -0.709152 3.96298
-0.00156761 -0.504695 3.61926
-0.556238 -0.542667 4.08022
-0.972616 -0.799274 3.8096
-0.114556 -0.0379004 3.29954
-0.504367 -0.131523 3.50187
-0.424872 -0.0757494 3.40591
0.0857679 -0.25561 3.69058
-0.816481 -0.521892 3.95877
-0.672701 -0.725815 3.85527
-0.5048 -0.136391 3.63647
-0.398832 -0.389446 3.42957
-0.239228 -0.542185 3.87611
-0.137648 -0.328452 3.71922
-0.48955 -0.151626 3.73256
-0.523964 -0.14202 3.53467
-0.0269243 -0.402304 3.67764
-0.136529 -0.289128 3.53204
-0.681321 -0.308447 4.01852
-0.0963459 -0.294473 3.95212
-0.742086 -0.629848 3.65922
-0.307714 -0.54732 3.68142
-0.0651678 -0.175859 3.79176
-0.217402 -0.543304 3.84036
0.224852 -0.338656 3.76756
-0.0956869 -0.029864 3.28191
-0.247722 -0.231493 3.43752
-0.610104 -0.694396 3.98578
-0.0261172 -0.183968 3.85512
-0.245387 -0.0573254 3.55618
-0.592118 -0.184104 3.69132
-0.374539 -0.577618 3.63576
-0.505525 -0.478903 4.05064
-0.677109 -0.670181 4.02908
-0.422728 -0.133757 3.39816
0.108286 -0.354364 3.69588
-0.604062 -0.588051 3.64443
-0.810241 -0.753363 3.90775
-0.982293 -0.806766 3.83466
-0.801806 -0.576102 3.90528
-0.403836 -0.470985 3.50238
-0.0209452 -0.484814 3.61399
-0.164298 -0.369934 4.07187
-0.56444 -0.179767 3.77262
-0.291822 -0.115299 3.59775
-0.418855 -0.04467 3.44235
-0.824524 -0.798354 3.91041
-1.06678 -0.85395 3.84112
0.183385 -0.366814 3.7547
-0.112422 -0.130907 3.3743
-0.839605 -0.465562 3.72478
-0.339856 -0.181348 3.38869
-0.480805 -0.429142 4.07371
-0.321729 -0.188616 3.82198
-0.308305 -0.547122 3.74174
-0.0743889 -0.0503399 3.24022
-0.209426 -0.334403 3.38396
-0.223429 -0.316677 3.94689
-0.730597 -0.541709 3.68784
-0.579942 -0.206391 3.64494
-0.673349 -0.335784 4.01947
-0.450448 -0.533987 3.57155
-0.486839 -0.161166 3.48268
-0.593934 -0.740606 3.7658
-0.631294 -0.273335 3.59062
-0.0846824 -0.0158223 3.23655
-0.789812 -0.356016 3.79425
-0.811887 -0.396848 3.92331
-0.15677 -0.489826 3.74432
-0.641902 -0.400213 3.59428
-0.305585 -0.0233635 3.56583
-0.566064 -0.192269 3.64172
-0.236066 -0.487948 3.82275
-0.572529 -0.7128 3.79795
-0.629261 -0.687226 3.95086
-0.494199 -0.348647 3.43333
-0.431089 -0.65887 3.99099
-0.228217 -0.312422 3.41023
-0.791343 -0.390862 3.80935
0.0257067 -0.278026 3.94788
-0.890586 -0.824478 3.89075
-0.524068 -0.486848 4.06562
-0.706895 -0.697647 3.68914
-0.622615 -0.220974 3.79593
-0.195206 -0.379477 3.42692
-0.282148 -0.329033 3.32188
-0.989058 -0.762832 3.84037
-0.57083 -0.72879 3.70403
-0.376185 -0.499522 3.90702
-0.217874 -0.500356 3.80386
-0.489619 -0.474437 4.06606
-0.440198 -0.423652 4.00124
-0.706815 -0.640064 3.70415
-0.919709 -0.843916 3.86051
-0.36682 -0.216038 3.40587
-0.289158 -0.525858 3.62686
-0.196549 -0.0552438 3.60792
-0.500948 -0.185517 3.4447
-0.240981 -0.109815 3.5541
-0.805246 -0.73626 3.93721
-0.591445 -0.682574 3.74133
-0.174945 -0.34449 3.72447
-0.247389 -0.00715804 3.64309
-0.0836828 -0.214541 3.57974
-0.338166 -0.599354 3.77736
-0.180974 -0.18566 3.60227
-0.579912 -0.703316 3.75688
-0.839562 -0.37852 3.84101
-0.792102 -0.385895 3.82264
-0.922804 -0.884905 3.88848
-0.464603 -0.219765 3.42188
-0.364895 -0.224124 3.30985
-0.842667 -0.378037 3.88829
-0.554337 -0.309674 3.50906
-0.15187 -0.309688 3.55168
-0.28673 -0.517093 3.6002
-0.772576 -0.388157 3.80136
-0.398653 -0.498454 3.53359
-0.150938 -0.147799 3.72903
-0.228772 -0.347493 3.85078
-0.669186 -0.691183 3.70335
-0.833496 -0.596702 3.95145
-0.244485 -0.582141 3.88869
-0.368208 -0.560509 3.60466
-0.321448 -0.223031 3.32931
-0.992795 -0.838043 3.79969
-0.580752 -0.767724 3.6377
-0.265026 -0.0990112 3.59576
-0.600506 -0.239487 3.87354
-0.191941 -0.406987 3.50283
-0.867668 -0.685276 3.97062
-0.906611 -0.808707 3.95893
-0.750071 -0.656332 3.68225
-0.0254018 -0.307203 3.64258
-0.146824 -0.29316 3.48502
-0.559628 -0.467932 4.06857
0.0237604 -0.488969 3.60846
-0.179404 -0.028082 3.38483
-0.34296 -0.179292 3.34673
0.0437315 -0.307157 3.62688
-0.457165 -0.464477 4.03619
-0.433912 -0.571846 4.0102
-0.595872 -0.471991 4.08926
-0.492284 -0.633974 3.70488
0.0262377 -0.315953 3.72881
-0.0329315 -0.0954343 3.3032
0.0725196 -0.29201 3.63545
-0.959906 -0.817603 3.95745
-0.763758 -0.743724 3.91312
-0.422729 -0.270625 3.91594
-0.714438 -0.701324 3.77681
-0.322794 -0.476944 3.84068
-0.552306 -0.180791 3.62418
-0.796036 -0.517839 3.66694
-0.997328 -0.916993 3.85358
-0.757279 -0.574743 3.70294
-0.0755044 -0.302784 3.50939
-0.138673 -0.361772 3.59495
-0.722177 -0.458993 4.01706
-0.595978 -0.708271 3.95908
-0.76117 -0.562226 3.64586
-1.03971 -0.866083 3.81969
-0.793121 -0.590151 3.83062
-0.156686 -0.399401 3.64551
-0.439244 -0.0887445 3.52171
-0.326019 -0.536846 3.72684
-0.227079 -0.597586 3.89327
-0.136562 -0.088724 3.45411
-0.0200723 -0.0490757 3.38099
-0.25111 -0.0659494 3.54257
-0.509189 -0.217203 3.8756
-0.0242301 -0.295492 3.99819
-0.81218 -0.483988 3.873
-0.77502 -0.368907 3.76921
-0.112533 -0.324736 3.81404
-0.427962 -0.0403521 3.54355
-0.590414 -0.522623 4.05939
-0.0371538 -0.656515 3.83692
-0.128094 -0.0755857 3.31808
-0.144739 -0.331426 3.41215
-0.779885 -0.423385 3.72249
-0.629608 -0.407009 3.58145
-0.302735 0.0056591 3.55547
-0.331244 -0.539497 3.68597
-0.152483 -0.324666 3.56176
-0.162791 -0.237846 3.7396
-0.0630397 -0.345072 3.6413
-0.282143 -0.236787 3.3976
-0.740337 -0.755895 3.89257
-0.804554 -0.582249 3.69332
-0.55463 -0.687758 3.94062
-0.757847 -0.602881 3.68439
-0.23714 -0.519133 3.95446
-0.160634 -0.371383 3.63778
-0.236774 -0.350575 4.03732
-0.416676 -0.425404 3.98356
-0.227118 -0.285362 3.81462
-0.0631896 -0.0688243 3.42482
-0.309959 -0.5172 3.74664
-1.00135 -0.761755 3.90949
-0.353266 -0.0157237 3.55538
-0.0583923 -0.00351548 3.22388
-0.066508 -0.195632 3.77266
-0.124297 -0.312483 3.84155
-0.245804 -0.601113 3.85015
-0.178937 -0.362427 3.4062
-0.190161 -0.577679 3.77898
-0.471539 -0.626765 3.65907
-0.871077 -0.603008 3.901
-0.188305 -0.41511 3.57523
-0.505471 -0.684565 3.81641
-0.402903 -0.490759 3.97504
0.0214749 -0.332713 3.70064
-0.0956777 -0.520605 3.62851
-0.476112 -0.735612 3.93247
-0.140464 -0.0387815 3.44673
-0.616427 -0.319855 3.54551
-0.448255 -0.429051 4.00873
-0.382539 -0.195172 3.34174
-0.14064 -0.162967 3.72587
-0.331891 -0.0685534 3.45774
-0.0980177 -0.233105 3.54838
-0.899172 -0.740939 3.84823
-0.649511 -0.627769 3.68881
-0.789663 -0.343643 3.87757
-0.439126 -0.691574 3.85011
-0.884623 -0.674193 3.85711
-0.790589 -0.610108 3.6825
-0.707526 -0.319094 4.02347
-0.806854 -0.568866 3.68204
-0.299473 -0.467607 3.93629
-0.438552 -0.0737488 3.66347
-0.196692 -0.268615 3.74464
-0.465697 -0.52469 3.53134
-0.131472 -0.147937 3.39358
-0.59708 -0.545634 3.61097
-0.322474 -0.394922 3.41815
0.1732 -0.320637 3.70272
0.165107 -0.292888 3.71683
-0.30777 -0.0135931 3.57252
-0.412598 -0.56793 3.96155
0.168403 -0.335608 3.78059
-0.318067 -0.120274 3.76641
-0.550797 -0.446574 4.06648
-0.415135 -0.370573 3.39716
-0.537112 -0.23787 3.50835
-0.0092776 -0.476802 3.57972
-0.231491 -0.324384 3.95448
-0.066325 -0.223026 3.74818
-0.459609 -0.427351 3.98958
-0.574011 -0.173163 3.62137
-0.518361 -0.354928 3.47948
-0.0943899 -0.428419 3.6826
-0.405559 -0.429705 3.46278
-0.425349 -0.247359 3.3558
-0.580926 -0.244163 3.84884
-0.895692 -0.683913 3.85491
0.0371054 -0.233695 3.92641
-0.260644 -0.472668 3.70351
-0.524568 -0.366225 3.46047
-0.847156 -0.431068 3.78594
-0.619395 -0.692507 3.71216
-0.287728 -0.46615 3.79164
-0.768717 -0.324726 3.84396
-0.534682 -0.69672 3.80171
-0.440995 -0.599459 3.93804
-0.147333 -0.0712944 3.66532
-0.749834 -0.636608 3.76116
-0.424985 -0.612644 4.01977
-0.504253 -0.701484 3.83466
-0.125879 -0.669294 3.8401
-0.553135 -0.729857 3.76942
-0.116206 -0.287647 3.64289
0.0268967 -0.22028 3.87548
-0.387345 -0.578192 3.69056
-0.253728 -0.412575 3.90005
-0.0971744 -0.282709 3.77541
-0.788422 -0.610996 3.68391
-0.656838 -0.332836 3.99777
-0.452412 -0.504104 3.50964
-1.00816 -0.803304 3.90372
-0.518883 -0.207232 3.49936
-0.458249 -0.65213 3.92631
-0.835077 -0.487685 3.88297
-0.208161 -0.408699 3.48058
-0.0680934 -0.199411 3.82559
-0.0912509 0.0395256 3.35787
-0.0680035 -0.461552 3.58245
-0.926374 -0.717806 3.94955
-0.129399 -0.378419 3.74118
-0.155994 -0.125687 3.48057
-0.118262 -0.341201 3.53999
-0.819265 -0.721324 3.83414
-0.610177 -0.365262 3.56342
-0.120579 -0.129727 3.44071
-0.792947 -0.62073 3.76061
-0.0622317 -0.611645 3.7418
-0.477061 -0.158622 3.42421
0.0206766 -0.220795 3.90908
-0.0796669 -0.344471 3.67593
0.224229 -0.369213 3.76821
-0.297872 -0.330486 3.84137
-0.16257 -0.343861 3.42329
-0.882405 -0.79018 3.82383
-0.739565 -0.373804 3.9755
0.105744 -0.542579 3.67819
-0.629723 -0.556799 3.60556
-0.762959 -0.598695 3.72098
-0.0723084 -0.500689 3.64828
-0.475201 -0.70996 3.90722
-0.297884 -0.220953 3.39579
-0.5529 -0.776477 3.59607
-0.103913 -0.39096 3.60973
-0.452233 -0.426762 3.47473
-0.808666 -0.778628 3.87805
-0.714178 -0.391443 4.03543
-0.958397 -0.724162 3.91969
-0.377141 -0.508615 3.90402
-0.517611 -0.668663 3.70631
-0.203259 -0.12883 3.70667
-0.398326 -0.0262921 3.58778
-0.671639 -0.4842 3.60114
-0.563396 -0.302781 3.94144
-0.320443 -0.363714 4.00965
-0.47607 -0.189453 3.84508
-0.654039 -0.297589 4.01158
-0.142941 -0.615249 3.73443
-0.568904 -0.388399 4.03753
-0.373237 -0.525742 3.92743
-0.441278 -0.637602 3.81746
-0.141082 -0.36794 3.4749
