ply
format ascii 1.0
comment Created by Open3D
element vertex 1936
property double x
property double y
property double z
end_header
-0.611963 -0.437937 3.62
-0.604316 -0.436728 3.61
-0.59836 -0.436728 3.61
-0.590762 -0.435518 3.6
-0.583198 -0.434308 3.59
-0.577275 -0.434308 3.59
-0.56976 -0.433098 3.58
-0.563853 -0.433098 3.58
-0.556388 -0.431888 3.57
-0.548956 -0.430679 3.56
-0.543082 -0.430679 3.56
-0.537208 -0.430679 3.56
-0.531335 -0.430679 3.56
-0.523985 -0.429469 3.55
-0.516668 -0.428259 3.54
-0.510827 -0.428259 3.54
-0.504987 -0.428259 3.54
-0.499146 -0.428259 3.54
-0.491912 -0.427049 3.53
-0.486087 -0.427049 3.53
-0.480263 -0.427049 3.53
-0.473095 -0.42584 3.52
-0.467287 -0.42584 3.52
-0.461479 -0.42584 3.52
-0.455671 -0.42584 3.52
-0.449864 -0.42584 3.52
-0.442794 -0.42463 3.51
-0.437003 -0.42463 3.51
-0.431212 -0.42463 3.51
-0.424209 -0.42342 3.5
-0.418434 -0.42342 3.5
-0.412659 -0.42342 3.5
-0.405722 -0.42221 3.49
-0.399964 -0.42221 3.49
-0.394205 -0.42221 3.49
-0.387334 -0.421001 3.48
-0.381592 -0.421001 3.48
-0.37585 -0.421001 3.48
-0.369045 -0.419791 3.47
-0.36332 -0.419791 3.47
-0.357595 -0.419791 3.47
-0.351869 -0.419791 3.47
-0.345147 -0.418581 3.46
-0.339438 -0.418581 3.46
-0.333729 -0.418581 3.46
-0.32802 -0.418581 3.46
-0.322312 -0.418581 3.46
-0.316603 -0.418581 3.46
-0.309996 -0.417371 3.45
-0.304303 -0.417371 3.45
-0.298611 -0.417371 3.45
-0.292919 -0.417371 3.45
-0.287226 -0.417371 3.45
-0.281534 -0.417371 3.45
-0.275842 -0.417371 3.45
-0.27015 -0.417371 3.45
-0.264457 -0.417371 3.45
-0.258765 -0.417371 3.45
-0.253073 -0.417371 3.45
-0.247381 -0.417371 3.45
-0.241688 -0.417371 3.45
-0.235996 -0.417371 3.45
-0.230971 -0.418581 3.46
-0.225263 -0.418581 3.46
-0.219554 -0.418581 3.46
-0.215081 -0.421001 3.48
-0.209339 -0.421001 3.48
-0.203598 -0.421001 3.48
-0.198424 -0.42221 3.49
-0.193218 -0.42342 3.5
-0.187444 -0.42342 3.5
-0.182188 -0.42463 3.51
-0.176899 -0.42584 3.52
-0.171091 -0.42584 3.52
-0.165753 -0.427049 3.53
-0.159929 -0.427049 3.53
-0.154105 -0.427049 3.53
-0.1487 -0.428259 3.54
-0.14286 -0.428259 3.54
-0.137019 -0.428259 3.54
-0.131549 -0.429469 3.55
-0.126046 -0.430679 3.56
-0.120172 -0.430679 3.56
-0.114298 -0.430679 3.56
-0.108729 -0.431888 3.57
-0.102839 -0.431888 3.57
-0.0969483 -0.431888 3.57
-0.0910581 -0.431888 3.57
-0.0854064 -0.433098 3.58
-0.0797217 -0.434308 3.59
-0.0737984 -0.434308 3.59
-0.0678752 -0.434308 3.59
-0.0621245 -0.435518 3.6
-0.0561847 -0.435518 3.6
-0.050245 -0.435518 3.6
-0.0444283 -0.436728 3.61
-0.0384721 -0.436728 3.61
-0.0326059 -0.437937 3.62
-0.0267067 -0.439147 3.63
-0.0207175 -0.439147 3.63
-0.0147282 -0.439147 3.63
-0.0087871 -0.441567 3.65
-0.00276485 -0.441567 3.65
0.0032574 -0.441567 3.65
0.00930507 -0.442776 3.66
0.0153438 -0.442776 3.66
0.0214994 -0.445196 3.68
0.0276461 -0.446406 3.69
0.0337343 -0.446406 3.69
0.0399305 -0.447615 3.7
0.0462841 -0.450035 3.72
0.0524218 -0.450035 3.72
0.0585596 -0.450035 3.72
-0.819557 -0.447468 3.75
-0.813369 -0.447468 3.75
-0.80503 -0.446274 3.74
-0.798859 -0.446274 3.74
-0.792688 -0.446274 3.74
-0.784414 -0.445081 3.73
-0.77826 -0.445081 3.73
-0.772106 -0.445081 3.73
-0.763898 -0.443888 3.72
-0.75776 -0.443888 3.72
-0.751623 -0.443888 3.72
-0.745485 -0.443888 3.72
-0.739347 -0.443888 3.72
-0.731238 -0.442695 3.71
-0.725117 -0.442695 3.71
-0.718996 -0.442695 3.71
-0.710953 -0.441501 3.7
-0.704848 -0.441501 3.7
-0.696855 -0.440308 3.69
-0.690767 -0.440308 3.69
-0.682823 -0.439115 3.68
-0.676751 -0.439115 3.68
-0.67068 -0.439115 3.68
-0.660996 -0.436729 3.66
-0.654957 -0.436729 3.66
-0.647145 -0.435535 3.65
-0.639367 -0.434342 3.64
-0.633361 -0.434342 3.64
-0.625632 -0.433149 3.63
-0.619642 -0.433149 3.63
-0.611963 -0.431956 3.62
-0.604316 -0.430762 3.61
-0.59836 -0.430762 3.61
-0.590762 -0.429569 3.6
-0.583198 -0.428376 3.59
-0.577275 -0.428376 3.59
-0.56976 -0.427183 3.58
-0.563853 -0.427183 3.58
-0.556388 -0.425989 3.57
-0.548956 -0.424796 3.56
-0.543082 -0.424796 3.56
-0.537208 -0.424796 3.56
-0.531335 -0.424796 3.56
-0.523985 -0.423603 3.55
-0.516668 -0.42241 3.54
-0.510827 -0.42241 3.54
-0.50356 -0.421216 3.53
-0.497736 -0.421216 3.53
-0.491912 -0.421216 3.53
-0.48471 -0.420023 3.52
-0.478903 -0.420023 3.52
-0.473095 -0.420023 3.52
-0.465959 -0.41883 3.51
-0.460168 -0.41883 3.51
-0.454377 -0.41883 3.51
-0.448586 -0.41883 3.51
-0.442794 -0.41883 3.51
-0.435758 -0.417637 3.5
-0.429983 -0.417637 3.5
-0.424209 -0.417637 3.5
-0.417238 -0.416443 3.49
-0.41148 -0.416443 3.49
-0.405722 -0.416443 3.49
-0.399964 -0.416443 3.49
-0.393076 -0.41525 3.48
-0.386221 -0.414057 3.47
-0.380496 -0.414057 3.47
-0.37477 -0.414057 3.47
-0.369045 -0.414057 3.47
-0.36332 -0.414057 3.47
-0.356564 -0.412864 3.46
-0.350855 -0.412864 3.46
-0.345147 -0.412864 3.46
-0.338457 -0.41167 3.45
-0.332765 -0.41167 3.45
-0.327072 -0.41167 3.45
-0.32138 -0.41167 3.45
-0.315688 -0.41167 3.45
-0.309996 -0.41167 3.45
-0.304303 -0.41167 3.45
-0.297745 -0.410477 3.44
-0.29207 -0.410477 3.44
-0.286394 -0.410477 3.44
-0.280718 -0.410477 3.44
-0.275042 -0.410477 3.44
-0.269367 -0.410477 3.44
-0.263691 -0.410477 3.44
-0.258015 -0.410477 3.44
-0.252339 -0.410477 3.44
-0.246664 -0.410477 3.44
-0.240988 -0.410477 3.44
-0.235312 -0.410477 3.44
-0.230304 -0.41167 3.45
-0.224612 -0.41167 3.45
-0.218919 -0.41167 3.45
-0.213845 -0.412864 3.46
-0.208738 -0.414057 3.47
-0.203013 -0.414057 3.47
-0.197287 -0.414057 3.47
-0.192114 -0.41525 3.48
-0.186372 -0.41525 3.48
-0.18115 -0.416443 3.49
-0.175894 -0.417637 3.5
-0.170119 -0.417637 3.5
-0.164814 -0.41883 3.51
-0.159023 -0.41883 3.51
-0.153232 -0.41883 3.51
-0.14786 -0.420023 3.52
-0.142456 -0.421216 3.53
-0.136632 -0.421216 3.53
-0.131178 -0.42241 3.54
-0.125337 -0.42241 3.54
-0.119497 -0.42241 3.54
-0.113977 -0.423603 3.55
-0.10812 -0.423603 3.55
-0.102551 -0.424796 3.56
-0.0966768 -0.424796 3.56
-0.090803 -0.424796 3.56
-0.0851678 -0.425989 3.57
-0.0794996 -0.427183 3.58
-0.0735929 -0.427183 3.58
-0.0678752 -0.428376 3.59
-0.0621245 -0.429569 3.6
-0.0561847 -0.429569 3.6
-0.050245 -0.429569 3.6
-0.0444283 -0.430762 3.61
-0.0384721 -0.430762 3.61
-0.0326059 -0.431956 3.62
-0.0267067 -0.433149 3.63
-0.0207175 -0.433149 3.63
-0.0147282 -0.433149 3.63
-0.0087871 -0.435535 3.65
-0.00276485 -0.435535 3.65
0.0032574 -0.435535 3.65
0.00933049 -0.437922 3.67
0.0153857 -0.437922 3.67
0.0214994 -0.439115 3.68
0.027721 -0.441501 3.7
0.0338257 -0.441501 3.7
0.0400384 -0.442695 3.71
0.0462841 -0.443888 3.72
0.0524218 -0.443888 3.72
0.058717 -0.445081 3.73
-0.819557 -0.441271 3.75
-0.813369 -0.441271 3.75
-0.80503 -0.440094 3.74
-0.798859 -0.440094 3.74
-0.792688 -0.440094 3.74
-0.784414 -0.438918 3.73
-0.77826 -0.438918 3.73
-0.772106 -0.438918 3.73
-0.763898 -0.437741 3.72
-0.75776 -0.437741 3.72
-0.751623 -0.437741 3.72
-0.745485 -0.437741 3.72
-0.739347 -0.437741 3.72
-0.731238 -0.436564 3.71
-0.725117 -0.436564 3.71
-0.718996 -0.436564 3.71
-0.710953 -0.435388 3.7
-0.704848 -0.435388 3.7
-0.696855 -0.434211 3.69
-0.690767 -0.434211 3.69
-0.682823 -0.433034 3.68
-0.676751 -0.433034 3.68
-0.67068 -0.433034 3.68
-0.660996 -0.430681 3.66
-0.654957 -0.430681 3.66
-0.647145 -0.429504 3.65
-0.639367 -0.428327 3.64
-0.633361 -0.428327 3.64
-0.625632 -0.42715 3.63
-0.619642 -0.42715 3.63
-0.611963 -0.425974 3.62
-0.604316 -0.424797 3.61
-0.59836 -0.424797 3.61
-0.590762 -0.42362 3.6
-0.583198 -0.422444 3.59
-0.577275 -0.422444 3.59
-0.56976 -0.421267 3.58
-0.563853 -0.421267 3.58
-0.556388 -0.42009 3.57
-0.548956 -0.418913 3.56
-0.543082 -0.418913 3.56
-0.535699 -0.417737 3.55
-0.529842 -0.417737 3.55
-0.522509 -0.41656 3.54
-0.516668 -0.41656 3.54
-0.510827 -0.41656 3.54
-0.50356 -0.415383 3.53
-0.497736 -0.415383 3.53
-0.491912 -0.415383 3.53
-0.48471 -0.414207 3.52
-0.478903 -0.414207 3.52
-0.473095 -0.414207 3.52
-0.465959 -0.41303 3.51
-0.460168 -0.41303 3.51
-0.454377 -0.41303 3.51
-0.448586 -0.41303 3.51
-0.442794 -0.41303 3.51
-0.435758 -0.411853 3.5
-0.429983 -0.411853 3.5
-0.424209 -0.411853 3.5
-0.417238 -0.410676 3.49
-0.41148 -0.410676 3.49
-0.405722 -0.410676 3.49
-0.399964 -0.410676 3.49
-0.393076 -0.4095 3.48
-0.386221 -0.408323 3.47
-0.380496 -0.408323 3.47
-0.37477 -0.408323 3.47
-0.369045 -0.408323 3.47
-0.36332 -0.408323 3.47
-0.356564 -0.407146 3.46
-0.350855 -0.407146 3.46
-0.345147 -0.407146 3.46
-0.338457 -0.405969 3.45
-0.332765 -0.405969 3.45
-0.327072 -0.405969 3.45
-0.32138 -0.405969 3.45
-0.315688 -0.405969 3.45
-0.309996 -0.405969 3.45
-0.304303 -0.405969 3.45
-0.297745 -0.404793 3.44
-0.29207 -0.404793 3.44
-0.286394 -0.404793 3.44
-0.280718 -0.404793 3.44
-0.275042 -0.404793 3.44
-0.269367 -0.404793 3.44
-0.263691 -0.404793 3.44
-0.258015 -0.404793 3.44
-0.252339 -0.404793 3.44
-0.246664 -0.404793 3.44
-0.240988 -0.404793 3.44
-0.235312 -0.404793 3.44
-0.229636 -0.404793 3.44
-0.223961 -0.404793 3.44
-0.218285 -0.404793 3.44
-0.212609 -0.404793 3.44
-0.207535 -0.405969 3.45
-0.201843 -0.405969 3.45
-0.196719 -0.407146 3.46
-0.191562 -0.408323 3.47
-0.185837 -0.408323 3.47
-0.180112 -0.408323 3.47
-0.174386 -0.408323 3.47
-0.169147 -0.4095 3.48
-0.163875 -0.410676 3.49
-0.158117 -0.410676 3.49
-0.152795 -0.411853 3.5
-0.14702 -0.411853 3.5
-0.141245 -0.411853 3.5
-0.135858 -0.41303 3.51
-0.130437 -0.414207 3.52
-0.124629 -0.414207 3.52
-0.119159 -0.415383 3.53
-0.113656 -0.41656 3.54
-0.107815 -0.41656 3.54
-0.101974 -0.41656 3.54
-0.0964052 -0.417737 3.55
-0.0905479 -0.417737 3.55
-0.0849292 -0.418913 3.56
-0.0792776 -0.42009 3.57
-0.0733873 -0.42009 3.57
-0.0676861 -0.421267 3.58
-0.0619519 -0.422444 3.59
-0.0560287 -0.422444 3.59
-0.050245 -0.42362 3.6
-0.0444283 -0.424797 3.61
-0.0384721 -0.424797 3.61
-0.0326059 -0.425974 3.62
-0.0266331 -0.425974 3.62
-0.0206604 -0.425974 3.62
-0.0147282 -0.42715 3.63
-0.00876303 -0.428327 3.64
-0.00275728 -0.428327 3.64
0.0032574 -0.429504 3.65
0.00933049 -0.431857 3.67
0.0153857 -0.431857 3.67
0.0214994 -0.433034 3.68
0.027721 -0.435388 3.7
0.0338257 -0.435388 3.7
0.0400384 -0.436564 3.71
0.0462841 -0.437741 3.72
0.0524218 -0.437741 3.72
0.058717 -0.438918 3.73
-0.819557 -0.435075 3.75
-0.813369 -0.435075 3.75
-0.807182 -0.435075 3.75
-0.800995 -0.435075 3.75
-0.792688 -0.433914 3.74
-0.786517 -0.433914 3.74
-0.780347 -0.433914 3.74
-0.772106 -0.432754 3.73
-0.765952 -0.432754 3.73
-0.759797 -0.432754 3.73
-0.753643 -0.432754 3.73
-0.747489 -0.432754 3.73
-0.739347 -0.431594 3.72
-0.733209 -0.431594 3.72
-0.727072 -0.431594 3.72
-0.718996 -0.430434 3.71
-0.710953 -0.429274 3.7
-0.704848 -0.429274 3.7
-0.698744 -0.429274 3.7
-0.692639 -0.429274 3.7
-0.684679 -0.428113 3.69
-0.676751 -0.426953 3.68
-0.67068 -0.426953 3.68
-0.662802 -0.425793 3.67
-0.656747 -0.425793 3.67
-0.648918 -0.424633 3.66
-0.641123 -0.423473 3.65
-0.635101 -0.423473 3.65
-0.625632 -0.421152 3.63
-0.619642 -0.421152 3.63
-0.611963 -0.419992 3.62
-0.604316 -0.418832 3.61
-0.59836 -0.418832 3.61
-0.590762 -0.417672 3.6
-0.584823 -0.417672 3.6
-0.577275 -0.416511 3.59
-0.56976 -0.415351 3.58
-0.563853 -0.415351 3.58
-0.556388 -0.414191 3.57
-0.548956 -0.413031 3.56
-0.543082 -0.413031 3.56
-0.535699 -0.411871 3.55
-0.529842 -0.411871 3.55
-0.522509 -0.41071 3.54
-0.515209 -0.40955 3.53
-0.509384 -0.40955 3.53
-0.50356 -0.40955 3.53
-0.497736 -0.40955 3.53
-0.490518 -0.40839 3.52
-0.48471 -0.40839 3.52
-0.478903 -0.40839 3.52
-0.471751 -0.40723 3.51
-0.465959 -0.40723 3.51
-0.460168 -0.40723 3.51
-0.453082 -0.40607 3.5
-0.447308 -0.40607 3.5
-0.441533 -0.40607 3.5
-0.434513 -0.404909 3.49
-0.428755 -0.404909 3.49
-0.422997 -0.404909 3.49
-0.417238 -0.404909 3.49
-0.410301 -0.403749 3.48
-0.404559 -0.403749 3.48
-0.398818 -0.403749 3.48
-0.391946 -0.402589 3.47
-0.386221 -0.402589 3.47
-0.380496 -0.402589 3.47
-0.37369 -0.401429 3.46
-0.367982 -0.401429 3.46
-0.362273 -0.401429 3.46
-0.355534 -0.400269 3.45
-0.349841 -0.400269 3.45
-0.344149 -0.400269 3.45
-0.337476 -0.399108 3.44
-0.3318 -0.399108 3.44
-0.326124 -0.399108 3.44
-0.320449 -0.399108 3.44
-0.314773 -0.399108 3.44
-0.309097 -0.399108 3.44
-0.303421 -0.399108 3.44
-0.29688 -0.397948 3.43
-0.291221 -0.397948 3.43
-0.285561 -0.397948 3.43
-0.279902 -0.397948 3.43
-0.274243 -0.397948 3.43
-0.268584 -0.397948 3.43
-0.262924 -0.397948 3.43
-0.257265 -0.397948 3.43
-0.251606 -0.397948 3.43
-0.245947 -0.397948 3.43
-0.240287 -0.397948 3.43
-0.234628 -0.397948 3.43
-0.229636 -0.399108 3.44
-0.223961 -0.399108 3.44
-0.218285 -0.399108 3.44
-0.212609 -0.399108 3.44
-0.207535 -0.400269 3.45
-0.201843 -0.400269 3.45
-0.196719 -0.401429 3.46
-0.191562 -0.402589 3.47
-0.185837 -0.402589 3.47
-0.180112 -0.402589 3.47
-0.174386 -0.402589 3.47
-0.169147 -0.403749 3.48
-0.163875 -0.404909 3.49
-0.158117 -0.404909 3.49
-0.152795 -0.40607 3.5
-0.14702 -0.40607 3.5
-0.141245 -0.40607 3.5
-0.135858 -0.40723 3.51
-0.130437 -0.40839 3.52
-0.124629 -0.40839 3.52
-0.119159 -0.40955 3.53
-0.113656 -0.41071 3.54
-0.107815 -0.41071 3.54
-0.101974 -0.41071 3.54
-0.0964052 -0.411871 3.55
-0.0905479 -0.411871 3.55
-0.0849292 -0.413031 3.56
-0.0792776 -0.414191 3.57
-0.0733873 -0.414191 3.57
-0.0676861 -0.415351 3.58
-0.0619519 -0.416511 3.59
-0.0560287 -0.416511 3.59
-0.050245 -0.417672 3.6
-0.0444283 -0.418832 3.61
-0.0384721 -0.418832 3.61
-0.0326059 -0.419992 3.62
-0.0266331 -0.419992 3.62
-0.0206604 -0.419992 3.62
-0.0147282 -0.421152 3.63
-0.00876303 -0.422312 3.64
-0.00275728 -0.422312 3.64
0.0032574 -0.423473 3.65
0.00933049 -0.425793 3.67
0.0153857 -0.425793 3.67
0.0214994 -0.426953 3.68
0.027721 -0.429274 3.7
0.0338257 -0.429274 3.7
0.0400384 -0.430434 3.71
0.0462841 -0.431594 3.72
0.0524218 -0.431594 3.72
0.058717 -0.432754 3.73
-0.813369 -0.428878 3.75
-0.807182 -0.428878 3.75
-0.800995 -0.428878 3.75
-0.792688 -0.427734 3.74
-0.786517 -0.427734 3.74
-0.780347 -0.427734 3.74
-0.772106 -0.426591 3.73
-0.765952 -0.426591 3.73
-0.759797 -0.426591 3.73
-0.753643 -0.426591 3.73
-0.747489 -0.426591 3.73
-0.741335 -0.426591 3.73
-0.733209 -0.425447 3.72
-0.727072 -0.425447 3.72
-0.720934 -0.425447 3.72
-0.712875 -0.424303 3.71
-0.706753 -0.424303 3.71
-0.698744 -0.42316 3.7
-0.692639 -0.42316 3.7
-0.684679 -0.422016 3.69
-0.676751 -0.420872 3.68
-0.67068 -0.420872 3.68
-0.662802 -0.419729 3.67
-0.656747 -0.419729 3.67
-0.648918 -0.418585 3.66
-0.641123 -0.417441 3.65
-0.635101 -0.417441 3.65
-0.625632 -0.415154 3.63
-0.619642 -0.415154 3.63
-0.611963 -0.41401 3.62
-0.604316 -0.412867 3.61
-0.59836 -0.412867 3.61
-0.590762 -0.411723 3.6
-0.584823 -0.411723 3.6
-0.577275 -0.410579 3.59
-0.56976 -0.409436 3.58
-0.563853 -0.409436 3.58
-0.556388 -0.408292 3.57
-0.548956 -0.407148 3.56
-0.543082 -0.407148 3.56
-0.535699 -0.406004 3.55
-0.529842 -0.406004 3.55
-0.522509 -0.404861 3.54
-0.515209 -0.403717 3.53
-0.509384 -0.403717 3.53
-0.50356 -0.403717 3.53
-0.497736 -0.403717 3.53
-0.490518 -0.402573 3.52
-0.48471 -0.402573 3.52
-0.478903 -0.402573 3.52
-0.471751 -0.40143 3.51
-0.465959 -0.40143 3.51
-0.460168 -0.40143 3.51
-0.453082 -0.400286 3.5
-0.447308 -0.400286 3.5
-0.441533 -0.400286 3.5
-0.434513 -0.399142 3.49
-0.428755 -0.399142 3.49
-0.421785 -0.397999 3.48
-0.416043 -0.397999 3.48
-0.410301 -0.397999 3.48
-0.403397 -0.396855 3.47
-0.397671 -0.396855 3.47
-0.391946 -0.396855 3.47
-0.385108 -0.395711 3.46
-0.379399 -0.395711 3.46
-0.37369 -0.395711 3.46
-0.367982 -0.395711 3.46
-0.361226 -0.394568 3.45
-0.355534 -0.394568 3.45
-0.349841 -0.394568 3.45
-0.343152 -0.393424 3.44
-0.337476 -0.393424 3.44
-0.3318 -0.393424 3.44
-0.325176 -0.39228 3.43
-0.319517 -0.39228 3.43
-0.313858 -0.39228 3.43
-0.308198 -0.39228 3.43
-0.302539 -0.39228 3.43
-0.29688 -0.39228 3.43
-0.290372 -0.391137 3.42
-0.284729 -0.391137 3.42
-0.279086 -0.391137 3.42
-0.273443 -0.391137 3.42
-0.267801 -0.391137 3.42
-0.262158 -0.391137 3.42
-0.256515 -0.391137 3.42
-0.250872 -0.391137 3.42
-0.245947 -0.39228 3.43
-0.240287 -0.39228 3.43
-0.234628 -0.39228 3.43
-0.228969 -0.39228 3.43
-0.22331 -0.39228 3.43
-0.21765 -0.39228 3.43
-0.211991 -0.39228 3.43
-0.206332 -0.39228 3.43
-0.201257 -0.393424 3.44
-0.19615 -0.394568 3.45
-0.190458 -0.394568 3.45
-0.185301 -0.395711 3.46
-0.179593 -0.395711 3.46
-0.173884 -0.395711 3.46
-0.168661 -0.396855 3.47
-0.163405 -0.397999 3.48
-0.157664 -0.397999 3.48
-0.151922 -0.397999 3.48
-0.1466 -0.399142 3.49
-0.140842 -0.399142 3.49
-0.135471 -0.400286 3.5
-0.130066 -0.40143 3.51
-0.124275 -0.40143 3.51
-0.118822 -0.402573 3.52
-0.113335 -0.403717 3.53
-0.107511 -0.403717 3.53
-0.101974 -0.404861 3.54
-0.0964052 -0.406004 3.55
-0.0905479 -0.406004 3.55
-0.0849292 -0.407148 3.56
-0.0792776 -0.408292 3.57
-0.0733873 -0.408292 3.57
-0.0676861 -0.409436 3.58
-0.0619519 -0.410579 3.59
-0.0560287 -0.410579 3.59
-0.050245 -0.411723 3.6
-0.0443052 -0.411723 3.6
-0.0383655 -0.411723 3.6
-0.0326059 -0.41401 3.62
-0.0266331 -0.41401 3.62
-0.0206604 -0.41401 3.62
-0.0147282 -0.415154 3.63
-0.00876303 -0.416298 3.64
-0.00275728 -0.416298 3.64
0.00326632 -0.418585 3.66
0.00933049 -0.419729 3.67
0.0153857 -0.419729 3.67
0.0214994 -0.420872 3.68
0.027721 -0.42316 3.7
0.0338257 -0.42316 3.7
0.0400384 -0.424303 3.71
0.0462841 -0.425447 3.72
0.0524218 -0.425447 3.72
0.058717 -0.426591 3.73
-0.813369 -0.422681 3.75
-0.807182 -0.422681 3.75
-0.800995 -0.422681 3.75
-0.794808 -0.422681 3.75
-0.786517 -0.421554 3.74
-0.780347 -0.421554 3.74
-0.774176 -0.421554 3.74
-0.768005 -0.421554 3.74
-0.761834 -0.421554 3.74
-0.753643 -0.420427 3.73
-0.747489 -0.420427 3.73
-0.741335 -0.420427 3.73
-0.733209 -0.4193 3.72
-0.727072 -0.4193 3.72
-0.720934 -0.4193 3.72
-0.712875 -0.418173 3.71
-0.706753 -0.418173 3.71
-0.698744 -0.417046 3.7
-0.692639 -0.417046 3.7
-0.684679 -0.415918 3.69
-0.676751 -0.414791 3.68
-0.67068 -0.414791 3.68
-0.662802 -0.413664 3.67
-0.656747 -0.413664 3.67
-0.648918 -0.412537 3.66
-0.641123 -0.41141 3.65
-0.635101 -0.41141 3.65
-0.625632 -0.409156 3.63
-0.619642 -0.409156 3.63
-0.611963 -0.408028 3.62
-0.604316 -0.406901 3.61
-0.59836 -0.406901 3.61
-0.590762 -0.405774 3.6
-0.584823 -0.405774 3.6
-0.577275 -0.404647 3.59
-0.56976 -0.40352 3.58
-0.563853 -0.40352 3.58
-0.556388 -0.402393 3.57
-0.548956 -0.401266 3.56
-0.543082 -0.401266 3.56
-0.535699 -0.400138 3.55
-0.529842 -0.400138 3.55
-0.522509 -0.399011 3.54
-0.515209 -0.397884 3.53
-0.509384 -0.397884 3.53
-0.502134 -0.396757 3.52
-0.496326 -0.396757 3.52
-0.490518 -0.396757 3.52
-0.483333 -0.39563 3.51
-0.477542 -0.39563 3.51
-0.471751 -0.39563 3.51
-0.465959 -0.39563 3.51
-0.458857 -0.394503 3.5
-0.453082 -0.394503 3.5
-0.447308 -0.394503 3.5
-0.440271 -0.393375 3.49
-0.434513 -0.393375 3.49
-0.428755 -0.393375 3.49
-0.421785 -0.392248 3.48
-0.416043 -0.392248 3.48
-0.410301 -0.392248 3.48
-0.403397 -0.391121 3.47
-0.397671 -0.391121 3.47
-0.391946 -0.391121 3.47
-0.385108 -0.389994 3.46
-0.379399 -0.389994 3.46
-0.37369 -0.389994 3.46
-0.367982 -0.389994 3.46
-0.361226 -0.388867 3.45
-0.355534 -0.388867 3.45
-0.349841 -0.388867 3.45
-0.343152 -0.38774 3.44
-0.337476 -0.38774 3.44
-0.3318 -0.38774 3.44
-0.325176 -0.386613 3.43
-0.319517 -0.386613 3.43
-0.313858 -0.386613 3.43
-0.308198 -0.386613 3.43
-0.302539 -0.386613 3.43
-0.29688 -0.386613 3.43
-0.290372 -0.385485 3.42
-0.284729 -0.385485 3.42
-0.279086 -0.385485 3.42
-0.273443 -0.385485 3.42
-0.267801 -0.385485 3.42
-0.262158 -0.385485 3.42
-0.256515 -0.385485 3.42
-0.250872 -0.385485 3.42
-0.245947 -0.386613 3.43
-0.240287 -0.386613 3.43
-0.234628 -0.386613 3.43
-0.228969 -0.386613 3.43
-0.22331 -0.386613 3.43
-0.21765 -0.386613 3.43
-0.211991 -0.386613 3.43
-0.206332 -0.386613 3.43
-0.201257 -0.38774 3.44
-0.19615 -0.388867 3.45
-0.190458 -0.388867 3.45
-0.185301 -0.389994 3.46
-0.179593 -0.389994 3.46
-0.173884 -0.389994 3.46
-0.168175 -0.389994 3.46
-0.162936 -0.391121 3.47
-0.157211 -0.391121 3.47
-0.151485 -0.391121 3.47
-0.14618 -0.392248 3.48
-0.140438 -0.392248 3.48
-0.135084 -0.393375 3.49
-0.129696 -0.394503 3.5
-0.123921 -0.394503 3.5
-0.118484 -0.39563 3.51
-0.113014 -0.396757 3.52
-0.107206 -0.396757 3.52
-0.101686 -0.397884 3.53
-0.0961336 -0.399011 3.54
-0.0902929 -0.399011 3.54
-0.0846907 -0.400138 3.55
-0.0790555 -0.401266 3.56
-0.0731817 -0.401266 3.56
-0.0674971 -0.402393 3.57
-0.0617794 -0.40352 3.58
-0.0558726 -0.40352 3.58
-0.0501054 -0.404647 3.59
-0.0443052 -0.405774 3.6
-0.0383655 -0.405774 3.6
-0.0325158 -0.406901 3.61
-0.0266331 -0.408028 3.62
-0.0206604 -0.408028 3.62
-0.0147282 -0.409156 3.63
-0.0087871 -0.41141 3.65
-0.00276485 -0.41141 3.65
0.00326632 -0.412537 3.66
0.00933049 -0.413664 3.67
0.0153857 -0.413664 3.67
0.0214994 -0.414791 3.68
0.027721 -0.417046 3.7
0.0338257 -0.417046 3.7
0.0400384 -0.418173 3.71
0.0462841 -0.4193 3.72
0.0524218 -0.4193 3.72
0.058717 -0.420427 3.73
0.0650451 -0.421554 3.74
0.0712159 -0.421554 3.74
-0.809335 -0.417595 3.76
-0.803131 -0.417595 3.76
-0.796927 -0.417595 3.76
-0.78862 -0.416485 3.75
-0.782433 -0.416485 3.75
-0.774176 -0.415374 3.74
-0.768005 -0.415374 3.74
-0.761834 -0.415374 3.74
-0.755664 -0.415374 3.74
-0.749493 -0.415374 3.74
-0.741335 -0.414264 3.73
-0.73518 -0.414264 3.73
-0.729026 -0.414264 3.73
-0.720934 -0.413153 3.72
-0.714796 -0.413153 3.72
-0.708658 -0.413153 3.72
-0.700632 -0.412042 3.71
-0.694511 -0.412042 3.71
-0.686534 -0.410932 3.7
-0.67859 -0.409821 3.69
-0.672502 -0.409821 3.69
-0.662802 -0.4076 3.67
-0.656747 -0.4076 3.67
-0.648918 -0.406489 3.66
-0.641123 -0.405379 3.65
-0.635101 -0.405379 3.65
-0.627355 -0.404268 3.64
-0.621349 -0.404268 3.64
-0.611963 -0.402047 3.62
-0.604316 -0.400936 3.61
-0.59836 -0.400936 3.61
-0.590762 -0.399825 3.6
-0.584823 -0.399825 3.6
-0.577275 -0.398715 3.59
-0.56976 -0.397604 3.58
-0.563853 -0.397604 3.58
-0.556388 -0.396494 3.57
-0.548956 -0.395383 3.56
-0.543082 -0.395383 3.56
-0.535699 -0.394272 3.55
-0.529842 -0.394272 3.55
-0.522509 -0.393162 3.54
-0.515209 -0.392051 3.53
-0.509384 -0.392051 3.53
-0.502134 -0.39094 3.52
-0.496326 -0.39094 3.52
-0.489124 -0.38983 3.51
-0.483333 -0.38983 3.51
-0.477542 -0.38983 3.51
-0.470407 -0.388719 3.5
-0.464632 -0.388719 3.5
-0.458857 -0.388719 3.5
-0.451788 -0.387609 3.49
-0.44603 -0.387609 3.49
-0.43901 -0.386498 3.48
-0.433268 -0.386498 3.48
-0.427526 -0.386498 3.48
-0.420573 -0.385387 3.47
-0.414847 -0.385387 3.47
-0.409122 -0.385387 3.47
-0.402234 -0.384277 3.46
-0.396525 -0.384277 3.46
-0.390817 -0.384277 3.46
-0.385108 -0.384277 3.46
-0.378303 -0.383166 3.45
-0.37261 -0.383166 3.45
-0.366918 -0.383166 3.45
-0.360179 -0.382055 3.44
-0.354503 -0.382055 3.44
-0.348827 -0.382055 3.44
-0.342154 -0.380945 3.43
-0.336495 -0.380945 3.43
-0.330836 -0.380945 3.43
-0.325176 -0.380945 3.43
-0.319517 -0.380945 3.43
-0.312943 -0.379834 3.42
-0.3073 -0.379834 3.42
-0.301657 -0.379834 3.42
-0.296014 -0.379834 3.42
-0.290372 -0.379834 3.42
-0.284729 -0.379834 3.42
-0.279086 -0.379834 3.42
-0.273443 -0.379834 3.42
-0.267801 -0.379834 3.42
-0.262158 -0.379834 3.42
-0.256515 -0.379834 3.42
-0.250872 -0.379834 3.42
-0.245229 -0.379834 3.42
-0.239587 -0.379834 3.42
-0.233944 -0.379834 3.42
-0.228301 -0.379834 3.42
-0.222658 -0.379834 3.42
-0.21765 -0.380945 3.43
-0.211991 -0.380945 3.43
-0.206332 -0.380945 3.43
-0.200672 -0.380945 3.43
-0.195582 -0.382055 3.44
-0.189906 -0.382055 3.44
-0.184766 -0.383166 3.45
-0.179073 -0.383166 3.45
-0.173381 -0.383166 3.45
-0.168175 -0.384277 3.46
-0.162936 -0.385387 3.47
-0.157211 -0.385387 3.47
-0.151485 -0.385387 3.47
-0.14618 -0.386498 3.48
-0.140438 -0.386498 3.48
-0.135084 -0.387609 3.49
-0.129696 -0.388719 3.5
-0.123921 -0.388719 3.5
-0.118484 -0.38983 3.51
-0.113014 -0.39094 3.52
-0.107206 -0.39094 3.52
-0.101686 -0.392051 3.53
-0.0961336 -0.393162 3.54
-0.0902929 -0.393162 3.54
-0.0846907 -0.394272 3.55
-0.0790555 -0.395383 3.56
-0.0731817 -0.395383 3.56
-0.0674971 -0.396494 3.57
-0.0617794 -0.397604 3.58
-0.0558726 -0.397604 3.58
-0.0501054 -0.398715 3.59
-0.0443052 -0.399825 3.6
-0.0383655 -0.399825 3.6
-0.0325158 -0.400936 3.61
-0.0266331 -0.402047 3.62
-0.0206604 -0.402047 3.62
-0.0147282 -0.403157 3.63
-0.0087871 -0.405379 3.65
-0.00276485 -0.405379 3.65
0.00326632 -0.406489 3.66
0.00933049 -0.4076 3.67
0.0153857 -0.4076 3.67
0.0215578 -0.409821 3.69
0.027721 -0.410932 3.7
0.0338257 -0.410932 3.7
0.0400384 -0.412042 3.71
0.0462841 -0.413153 3.72
0.0524218 -0.413153 3.72
0.058717 -0.414264 3.73
0.0650451 -0.415374 3.74
0.0712159 -0.415374 3.74
0.1347 -0.420927 3.79
0.140954 -0.420927 3.79
0.147207 -0.420927 3.79
0.153865 -0.422038 3.8
0.160135 -0.422038 3.8
0.166404 -0.422038 3.8
0.173129 -0.423149 3.81
0.179415 -0.423149 3.81
0.185701 -0.423149 3.81
0.192491 -0.424259 3.82
0.198794 -0.424259 3.82
0.205097 -0.424259 3.82
0.211953 -0.42537 3.83
0.218272 -0.42537 3.83
-0.809335 -0.411382 3.76
-0.803131 -0.411382 3.76
-0.796927 -0.411382 3.76
-0.78862 -0.410288 3.75
-0.782433 -0.410288 3.75
-0.774176 -0.409194 3.74
-0.768005 -0.409194 3.74
-0.761834 -0.409194 3.74
-0.755664 -0.409194 3.74
-0.749493 -0.409194 3.74
-0.741335 -0.4081 3.73
-0.73518 -0.4081 3.73
-0.729026 -0.4081 3.73
-0.720934 -0.407006 3.72
-0.714796 -0.407006 3.72
-0.708658 -0.407006 3.72
-0.700632 -0.405912 3.71
-0.694511 -0.405912 3.71
-0.686534 -0.404818 3.7
-0.67859 -0.403724 3.69
-0.672502 -0.403724 3.69
-0.664608 -0.40263 3.68
-0.658536 -0.40263 3.68
-0.648918 -0.400441 3.66
-0.641123 -0.399347 3.65
-0.635101 -0.399347 3.65
-0.627355 -0.398253 3.64
-0.621349 -0.398253 3.64
-0.613653 -0.397159 3.63
-0.604316 -0.394971 3.61
-0.59836 -0.394971 3.61
-0.590762 -0.393877 3.6
-0.584823 -0.393877 3.6
-0.577275 -0.392783 3.59
-0.56976 -0.391688 3.58
-0.563853 -0.391688 3.58
-0.556388 -0.390594 3.57
-0.550498 -0.390594 3.57
-0.543082 -0.3895 3.56
-0.535699 -0.388406 3.55
-0.529842 -0.388406 3.55
-0.522509 -0.387312 3.54
-0.515209 -0.386218 3.53
-0.509384 -0.386218 3.53
-0.502134 -0.385124 3.52
-0.496326 -0.385124 3.52
-0.489124 -0.38403 3.51
-0.483333 -0.38403 3.51
-0.477542 -0.38403 3.51
-0.470407 -0.382936 3.5
-0.464632 -0.382936 3.5
-0.458857 -0.382936 3.5
-0.451788 -0.381842 3.49
-0.44603 -0.381842 3.49
-0.43901 -0.380747 3.48
-0.433268 -0.380747 3.48
-0.427526 -0.380747 3.48
-0.420573 -0.379653 3.47
-0.414847 -0.379653 3.47
-0.409122 -0.379653 3.47
-0.402234 -0.378559 3.46
-0.396525 -0.378559 3.46
-0.390817 -0.378559 3.46
-0.385108 -0.378559 3.46
-0.378303 -0.377465 3.45
-0.37261 -0.377465 3.45
-0.366918 -0.377465 3.45
-0.359132 -0.375277 3.43
-0.353473 -0.375277 3.43
-0.347813 -0.375277 3.43
-0.342154 -0.375277 3.43
-0.336495 -0.375277 3.43
-0.329871 -0.374183 3.42
-0.324228 -0.374183 3.42
-0.318585 -0.374183 3.42
-0.312943 -0.374183 3.42
-0.3073 -0.374183 3.42
-0.301657 -0.374183 3.42
-0.296014 -0.374183 3.42
-0.290372 -0.374183 3.42
-0.284729 -0.374183 3.42
-0.279086 -0.374183 3.42
-0.273443 -0.374183 3.42
-0.267801 -0.374183 3.42
-0.262158 -0.374183 3.42
-0.256515 -0.374183 3.42
-0.250872 -0.374183 3.42
-0.245229 -0.374183 3.42
-0.239587 -0.374183 3.42
-0.233944 -0.374183 3.42
-0.228301 -0.374183 3.42
-0.222658 -0.374183 3.42
-0.217016 -0.374183 3.42
-0.211991 -0.375277 3.43
-0.206332 -0.375277 3.43
-0.200672 -0.375277 3.43
-0.195013 -0.375277 3.43
-0.189354 -0.375277 3.43
-0.18423 -0.376371 3.44
-0.179073 -0.377465 3.45
-0.173381 -0.377465 3.45
-0.167689 -0.377465 3.45
-0.162466 -0.378559 3.46
-0.156757 -0.378559 3.46
-0.151485 -0.379653 3.47
-0.14576 -0.379653 3.47
-0.140035 -0.379653 3.47
-0.134697 -0.380747 3.48
-0.129325 -0.381842 3.49
-0.123567 -0.381842 3.49
-0.118146 -0.382936 3.5
-0.112693 -0.38403 3.51
-0.106901 -0.38403 3.51
-0.101398 -0.385124 3.52
-0.0958621 -0.386218 3.53
-0.0900378 -0.386218 3.53
-0.0844521 -0.387312 3.54
-0.0790555 -0.3895 3.56
-0.0731817 -0.3895 3.56
-0.0674971 -0.390594 3.57
-0.0617794 -0.391688 3.58
-0.0558726 -0.391688 3.58
-0.0501054 -0.392783 3.59
-0.0443052 -0.393877 3.6
-0.0383655 -0.393877 3.6
-0.0325158 -0.394971 3.61
-0.0266331 -0.396065 3.62
-0.0206604 -0.396065 3.62
-0.0147282 -0.397159 3.63
-0.00876303 -0.398253 3.64
-0.00275728 -0.398253 3.64
0.0032574 -0.399347 3.65
0.00933049 -0.401535 3.67
0.0153857 -0.401535 3.67
0.0214994 -0.40263 3.68
0.027721 -0.404818 3.7
0.0338257 -0.404818 3.7
0.0399305 -0.404818 3.7
0.0462841 -0.407006 3.72
0.0524218 -0.407006 3.72
0.058717 -0.4081 3.73
0.0650451 -0.409194 3.74
0.0712159 -0.409194 3.74
0.1347 -0.414665 3.79
0.140954 -0.414665 3.79
0.147207 -0.414665 3.79
0.153865 -0.415759 3.8
0.160135 -0.415759 3.8
0.166404 -0.415759 3.8
0.173129 -0.416853 3.81
0.179415 -0.416853 3.81
0.185701 -0.416853 3.81
0.192491 -0.417947 3.82
0.198794 -0.417947 3.82
0.205097 -0.417947 3.82
0.211953 -0.419041 3.83
0.218272 -0.419041 3.83
0.224591 -0.419041 3.83
-0.805267 -0.406247 3.77
-0.799046 -0.406247 3.77
-0.790723 -0.405169 3.76
-0.78452 -0.405169 3.76
-0.778316 -0.405169 3.76
-0.770059 -0.404092 3.75
-0.763871 -0.404092 3.75
-0.757684 -0.404092 3.75
-0.751497 -0.404092 3.75
-0.743322 -0.403014 3.74
-0.737151 -0.403014 3.74
-0.730981 -0.403014 3.74
-0.722872 -0.401937 3.73
-0.714796 -0.400859 3.72
-0.708658 -0.400859 3.72
-0.700632 -0.399781 3.71
-0.694511 -0.399781 3.71
-0.686534 -0.398704 3.7
-0.67859 -0.397626 3.69
-0.672502 -0.397626 3.69
-0.664608 -0.396549 3.68
-0.658536 -0.396549 3.68
-0.648918 -0.394393 3.66
-0.641123 -0.393316 3.65
-0.635101 -0.393316 3.65
-0.627355 -0.392238 3.64
-0.621349 -0.392238 3.64
-0.613653 -0.391161 3.63
-0.604316 -0.389006 3.61
-0.59836 -0.389006 3.61
-0.590762 -0.387928 3.6
-0.584823 -0.387928 3.6
-0.577275 -0.38685 3.59
-0.56976 -0.385773 3.58
-0.563853 -0.385773 3.58
-0.556388 -0.384695 3.57
-0.550498 -0.384695 3.57
-0.543082 -0.383618 3.56
-0.535699 -0.38254 3.55
-0.529842 -0.38254 3.55
-0.521033 -0.380385 3.53
-0.515209 -0.380385 3.53
-0.509384 -0.380385 3.53
-0.502134 -0.379307 3.52
-0.496326 -0.379307 3.52
-0.489124 -0.37823 3.51
-0.481956 -0.377152 3.5
-0.476181 -0.377152 3.5
-0.470407 -0.377152 3.5
-0.464632 -0.377152 3.5
-0.457546 -0.376075 3.49
-0.450493 -0.374997 3.48
-0.444752 -0.374997 3.48
-0.43901 -0.374997 3.48
-0.433268 -0.374997 3.48
-0.426298 -0.373919 3.47
-0.420573 -0.373919 3.47
-0.414847 -0.373919 3.47
-0.407943 -0.372842 3.46
-0.402234 -0.372842 3.46
-0.396525 -0.372842 3.46
-0.389687 -0.371764 3.45
-0.383995 -0.371764 3.45
-0.378303 -0.371764 3.45
-0.37153 -0.370687 3.44
-0.365855 -0.370687 3.44
-0.359132 -0.369609 3.43
-0.353473 -0.369609 3.43
-0.347813 -0.369609 3.43
-0.342154 -0.369609 3.43
-0.336495 -0.369609 3.43
-0.329871 -0.368532 3.42
-0.324228 -0.368532 3.42
-0.318585 -0.368532 3.42
-0.312943 -0.368532 3.42
-0.3073 -0.368532 3.42
-0.301657 -0.368532 3.42
-0.296014 -0.368532 3.42
-0.290372 -0.368532 3.42
-0.284729 -0.368532 3.42
-0.279086 -0.368532 3.42
-0.273443 -0.368532 3.42
-0.267801 -0.368532 3.42
-0.262158 -0.368532 3.42
-0.256515 -0.368532 3.42
-0.250872 -0.368532 3.42
-0.245229 -0.368532 3.42
-0.239587 -0.368532 3.42
-0.233944 -0.368532 3.42
-0.228301 -0.368532 3.42
-0.222658 -0.368532 3.42
-0.217016 -0.368532 3.42
-0.211991 -0.369609 3.43
-0.206332 -0.369609 3.43
-0.200672 -0.369609 3.43
-0.195013 -0.369609 3.43
-0.189354 -0.369609 3.43
-0.18423 -0.370687 3.44
-0.179073 -0.371764 3.45
-0.173381 -0.371764 3.45
-0.167689 -0.371764 3.45
-0.162466 -0.372842 3.46
-0.156757 -0.372842 3.46
-0.151485 -0.373919 3.47
-0.14576 -0.373919 3.47
-0.140035 -0.373919 3.47
-0.134697 -0.374997 3.48
-0.129325 -0.376075 3.49
-0.123567 -0.376075 3.49
-0.118146 -0.377152 3.5
-0.112372 -0.377152 3.5
-0.106597 -0.377152 3.5
-0.10111 -0.37823 3.51
-0.0958621 -0.380385 3.53
-0.0900378 -0.380385 3.53
-0.0844521 -0.381463 3.54
-0.0788334 -0.38254 3.55
-0.0729762 -0.38254 3.55
-0.0674971 -0.384695 3.57
-0.0617794 -0.385773 3.58
-0.0558726 -0.385773 3.58
-0.0501054 -0.38685 3.59
-0.0443052 -0.387928 3.6
-0.0383655 -0.387928 3.6
-0.0325158 -0.389006 3.61
-0.0266331 -0.390083 3.62
-0.0206604 -0.390083 3.62
-0.0147282 -0.391161 3.63
-0.00876303 -0.392238 3.64
-0.00275728 -0.392238 3.64
0.0032574 -0.393316 3.65
0.00930507 -0.394393 3.66
0.0153438 -0.394393 3.66
0.0214994 -0.396549 3.68
0.0276461 -0.397626 3.69
0.0337343 -0.397626 3.69
0.0399305 -0.398704 3.7
0.0462841 -0.400859 3.72
0.0524218 -0.400859 3.72
0.0585596 -0.400859 3.72
0.0648712 -0.401937 3.73
0.0710255 -0.401937 3.73
0.0773866 -0.403014 3.74
0.0964117 -0.405169 3.76
0.102615 -0.405169 3.76
0.108819 -0.405169 3.76
0.115329 -0.406247 3.77
0.121549 -0.406247 3.77
0.127769 -0.406247 3.77
0.134345 -0.407324 3.78
0.140582 -0.407324 3.78
0.147207 -0.408402 3.79
0.15346 -0.408402 3.79
0.159713 -0.408402 3.79
0.166404 -0.40948 3.8
0.172674 -0.40948 3.8
0.178944 -0.40948 3.8
0.185701 -0.410557 3.81
0.192491 -0.411635 3.82
0.198794 -0.411635 3.82
0.205097 -0.411635 3.82
0.211953 -0.412712 3.83
0.218272 -0.412712 3.83
0.224591 -0.412712 3.83
0.231513 -0.41379 3.84
-0.801166 -0.401078 3.78
-0.792826 -0.400017 3.77
-0.786606 -0.400017 3.77
-0.778316 -0.398956 3.76
-0.772112 -0.398956 3.76
-0.765908 -0.398956 3.76
-0.759705 -0.398956 3.76
-0.753501 -0.398956 3.76
-0.74531 -0.397895 3.75
-0.737151 -0.396834 3.74
-0.730981 -0.396834 3.74
-0.72481 -0.396834 3.74
-0.716718 -0.395773 3.73
-0.710563 -0.395773 3.73
-0.702521 -0.394712 3.72
-0.696383 -0.394712 3.72
-0.68839 -0.393651 3.71
-0.680429 -0.39259 3.7
-0.674325 -0.39259 3.7
-0.664608 -0.390468 3.68
-0.658536 -0.390468 3.68
-0.650691 -0.389407 3.67
-0.64288 -0.388346 3.66
-0.636841 -0.388346 3.66
-0.627355 -0.386223 3.64
-0.621349 -0.386223 3.64
-0.613653 -0.385162 3.63
-0.604316 -0.38304 3.61
-0.59836 -0.38304 3.61
-0.590762 -0.381979 3.6
-0.584823 -0.381979 3.6
-0.577275 -0.380918 3.59
-0.56976 -0.379857 3.58
-0.563853 -0.379857 3.58
-0.556388 -0.378796 3.57
-0.550498 -0.378796 3.57
-0.543082 -0.377735 3.56
-0.53419 -0.375613 3.54
-0.52835 -0.375613 3.54
-0.521033 -0.374552 3.53
-0.515209 -0.374552 3.53
-0.507941 -0.373491 3.52
-0.500707 -0.37243 3.51
-0.494916 -0.37243 3.51
-0.489124 -0.37243 3.51
-0.481956 -0.371369 3.5
-0.476181 -0.371369 3.5
-0.469063 -0.370308 3.49
-0.463304 -0.370308 3.49
-0.457546 -0.370308 3.49
-0.450493 -0.369247 3.48
-0.444752 -0.369247 3.48
-0.437748 -0.368186 3.47
-0.432023 -0.368186 3.47
-0.426298 -0.368186 3.47
-0.419361 -0.367124 3.46
-0.413652 -0.367124 3.46
-0.407943 -0.367124 3.46
-0.401072 -0.366063 3.45
-0.395379 -0.366063 3.45
-0.388558 -0.365002 3.44
-0.382882 -0.365002 3.44
-0.377206 -0.365002 3.44
-0.37045 -0.363941 3.43
-0.364791 -0.363941 3.43
-0.359132 -0.363941 3.43
-0.353473 -0.363941 3.43
-0.346799 -0.36288 3.42
-0.341156 -0.36288 3.42
-0.335514 -0.36288 3.42
-0.329871 -0.36288 3.42
-0.324228 -0.36288 3.42
-0.318585 -0.36288 3.42
-0.312028 -0.361819 3.41
-0.306401 -0.361819 3.41
-0.300775 -0.361819 3.41
-0.295149 -0.361819 3.41
-0.289523 -0.361819 3.41
-0.283896 -0.361819 3.41
-0.27827 -0.361819 3.41
-0.272644 -0.361819 3.41
-0.267018 -0.361819 3.41
-0.261391 -0.361819 3.41
-0.255765 -0.361819 3.41
-0.250139 -0.361819 3.41
-0.245229 -0.36288 3.42
-0.239587 -0.36288 3.42
-0.233944 -0.36288 3.42
-0.228301 -0.36288 3.42
-0.222658 -0.36288 3.42
-0.217016 -0.36288 3.42
-0.211373 -0.36288 3.42
-0.20573 -0.36288 3.42
-0.200672 -0.363941 3.43
-0.195013 -0.363941 3.43
-0.189354 -0.363941 3.43
-0.18423 -0.365002 3.44
-0.178554 -0.365002 3.44
-0.172879 -0.365002 3.44
-0.167689 -0.366063 3.45
-0.161997 -0.366063 3.45
-0.156304 -0.366063 3.45
-0.151049 -0.367124 3.46
-0.14576 -0.368186 3.47
-0.140035 -0.368186 3.47
-0.134697 -0.369247 3.48
-0.129325 -0.370308 3.49
-0.123567 -0.370308 3.49
-0.118146 -0.371369 3.5
-0.112372 -0.371369 3.5
-0.106597 -0.371369 3.5
-0.10111 -0.37243 3.51
-0.0958621 -0.374552 3.53
-0.0900378 -0.374552 3.53
-0.0844521 -0.375613 3.54
-0.0788334 -0.376674 3.55
-0.0729762 -0.376674 3.55
-0.0674971 -0.378796 3.57
-0.0617794 -0.379857 3.58
-0.0558726 -0.379857 3.58
-0.0501054 -0.380918 3.59
-0.0443052 -0.381979 3.6
-0.0383655 -0.381979 3.6
-0.0325158 -0.38304 3.61
-0.0266331 -0.384101 3.62
-0.0206604 -0.384101 3.62
-0.0147282 -0.385162 3.63
-0.00876303 -0.386223 3.64
-0.00275728 -0.386223 3.64
0.0032574 -0.387285 3.65
0.00930507 -0.388346 3.66
0.0153438 -0.388346 3.66
0.0214994 -0.390468 3.68
0.0276461 -0.391529 3.69
0.0337343 -0.391529 3.69
0.0399305 -0.39259 3.7
0.0462841 -0.394712 3.72
0.0524218 -0.394712 3.72
0.0585596 -0.394712 3.72
0.0648712 -0.395773 3.73
0.0710255 -0.395773 3.73
0.0773866 -0.396834 3.74
0.0964117 -0.398956 3.76
0.102615 -0.398956 3.76
0.108819 -0.398956 3.76
0.115329 -0.400017 3.77
0.121549 -0.400017 3.77
0.127769 -0.400017 3.77
0.134345 -0.401078 3.78
0.140582 -0.401078 3.78
0.146818 -0.401078 3.78
0.15346 -0.402139 3.79
0.159713 -0.402139 3.79
0.166404 -0.4032 3.8
0.172674 -0.4032 3.8
0.178944 -0.4032 3.8
0.185701 -0.404261 3.81
0.192491 -0.405322 3.82
0.198794 -0.405322 3.82
0.205097 -0.405322 3.82
0.211953 -0.406383 3.83
0.218272 -0.406383 3.83
0.224591 -0.406383 3.83
0.232116 -0.408506 3.85
-0.801166 -0.394832 3.78
-0.792826 -0.393788 3.77
-0.786606 -0.393788 3.77
-0.778316 -0.392743 3.76
-0.772112 -0.392743 3.76
-0.765908 -0.392743 3.76
-0.759705 -0.392743 3.76
-0.753501 -0.392743 3.76
-0.74531 -0.391698 3.75
-0.737151 -0.390654 3.74
-0.730981 -0.390654 3.74
-0.72481 -0.390654 3.74
-0.716718 -0.389609 3.73
-0.710563 -0.389609 3.73
-0.702521 -0.388565 3.72
-0.696383 -0.388565 3.72
-0.68839 -0.38752 3.71
-0.680429 -0.386476 3.7
-0.674325 -0.386476 3.7
-0.664608 -0.384387 3.68
-0.658536 -0.384387 3.68
-0.650691 -0.383342 3.67
-0.64288 -0.382298 3.66
-0.636841 -0.382298 3.66
-0.627355 -0.380209 3.64
-0.621349 -0.380209 3.64
-0.613653 -0.379164 3.63
-0.604316 -0.377075 3.61
-0.59836 -0.377075 3.61
-0.590762 -0.376031 3.6
-0.584823 -0.376031 3.6
-0.577275 -0.374986 3.59
-0.56976 -0.373941 3.58
-0.563853 -0.373941 3.58
-0.556388 -0.372897 3.57
-0.550498 -0.372897 3.57
-0.543082 -0.371852 3.56
-0.53419 -0.369763 3.54
-0.52835 -0.369763 3.54
-0.521033 -0.368719 3.53
-0.515209 -0.368719 3.53
-0.507941 -0.367674 3.52
-0.500707 -0.36663 3.51
-0.494916 -0.36663 3.51
-0.489124 -0.36663 3.51
-0.481956 -0.365585 3.5
-0.476181 -0.365585 3.5
-0.469063 -0.364541 3.49
-0.463304 -0.364541 3.49
-0.457546 -0.364541 3.49
-0.450493 -0.363496 3.48
-0.444752 -0.363496 3.48
-0.437748 -0.362452 3.47
-0.432023 -0.362452 3.47
-0.426298 -0.362452 3.47
-0.419361 -0.361407 3.46
-0.413652 -0.361407 3.46
-0.407943 -0.361407 3.46
-0.401072 -0.360363 3.45
-0.395379 -0.360363 3.45
-0.388558 -0.359318 3.44
-0.382882 -0.359318 3.44
-0.377206 -0.359318 3.44
-0.37045 -0.358274 3.43
-0.364791 -0.358274 3.43
-0.359132 -0.358274 3.43
-0.353473 -0.358274 3.43
-0.346799 -0.357229 3.42
-0.341156 -0.357229 3.42
-0.335514 -0.357229 3.42
-0.329871 -0.357229 3.42
-0.324228 -0.357229 3.42
-0.318585 -0.357229 3.42
-0.312028 -0.356184 3.41
-0.306401 -0.356184 3.41
-0.300775 -0.356184 3.41
-0.295149 -0.356184 3.41
-0.289523 -0.356184 3.41
-0.283896 -0.356184 3.41
-0.27827 -0.356184 3.41
-0.272644 -0.356184 3.41
-0.267018 -0.356184 3.41
-0.261391 -0.356184 3.41
-0.255765 -0.356184 3.41
-0.250139 -0.356184 3.41
-0.244512 -0.356184 3.41
-0.238886 -0.356184 3.41
-0.23326 -0.356184 3.41
-0.228301 -0.357229 3.42
-0.222658 -0.357229 3.42
-0.217016 -0.357229 3.42
-0.211373 -0.357229 3.42
-0.20573 -0.357229 3.42
-0.200087 -0.357229 3.42
-0.195013 -0.358274 3.43
-0.189354 -0.358274 3.43
-0.183695 -0.358274 3.43
-0.178554 -0.359318 3.44
-0.172879 -0.359318 3.44
-0.167203 -0.359318 3.44
-0.161997 -0.360363 3.45
-0.156304 -0.360363 3.45
-0.151049 -0.361407 3.46
-0.14534 -0.361407 3.46
-0.139631 -0.361407 3.46
-0.13431 -0.362452 3.47
-0.128584 -0.362452 3.47
-0.123213 -0.363496 3.48
-0.117809 -0.364541 3.49
-0.112051 -0.364541 3.49
-0.106597 -0.365585 3.5
-0.10111 -0.36663 3.51
-0.0953189 -0.36663 3.51
-0.0897827 -0.367674 3.52
-0.0844521 -0.369763 3.54
-0.0788334 -0.370808 3.55
-0.0729762 -0.370808 3.55
-0.067308 -0.371852 3.56
-0.0617794 -0.373941 3.58
-0.0558726 -0.373941 3.58
-0.0501054 -0.374986 3.59
-0.0443052 -0.376031 3.6
-0.0383655 -0.376031 3.6
-0.0324257 -0.376031 3.6
-0.0266331 -0.37812 3.62
-0.0206604 -0.37812 3.62
-0.0147282 -0.379164 3.63
-0.00876303 -0.380209 3.64
-0.00275728 -0.380209 3.64
0.0032574 -0.381253 3.65
0.00930507 -0.382298 3.66
0.0153438 -0.382298 3.66
0.0214994 -0.384387 3.68
0.0276461 -0.385431 3.69
0.0337343 -0.385431 3.69
0.0399305 -0.386476 3.7
0.0461597 -0.38752 3.71
0.0522809 -0.38752 3.71
0.0585596 -0.388565 3.72
0.0648712 -0.389609 3.73
0.0710255 -0.389609 3.73
0.0773866 -0.390654 3.74
0.0835574 -0.390654 3.74
0.0897281 -0.390654 3.74
0.0961553 -0.391698 3.75
0.102343 -0.391698 3.75
0.108819 -0.392743 3.76
0.115023 -0.392743 3.76
0.121227 -0.392743 3.76
0.127769 -0.393788 3.77
0.134345 -0.394832 3.78
0.140582 -0.394832 3.78
0.146818 -0.394832 3.78
0.15346 -0.395877 3.79
0.159713 -0.395877 3.79
0.166404 -0.396921 3.8
0.173129 -0.397966 3.81
0.179415 -0.397966 3.81
0.185701 -0.397966 3.81
0.192491 -0.39901 3.82
0.198794 -0.39901 3.82
0.205097 -0.39901 3.82
0.211953 -0.400055 3.83
0.218272 -0.400055 3.83
0.225178 -0.401099 3.84
0.232719 -0.403188 3.86
0.239088 -0.403188 3.86
-0.797032 -0.389614 3.79
-0.790779 -0.389614 3.79
-0.780386 -0.387558 3.77
-0.774166 -0.387558 3.77
-0.767945 -0.387558 3.77
-0.761725 -0.387558 3.77
-0.753501 -0.38653 3.76
-0.747297 -0.38653 3.76
-0.739122 -0.385502 3.75
-0.732935 -0.385502 3.75
-0.726748 -0.385502 3.75
-0.718639 -0.384474 3.74
-0.712468 -0.384474 3.74
-0.704409 -0.383446 3.73
-0.698255 -0.383446 3.73
-0.690245 -0.382418 3.72
-0.680429 -0.380362 3.7
-0.674325 -0.380362 3.7
-0.666414 -0.379334 3.69
-0.660326 -0.379334 3.69
-0.652464 -0.378306 3.68
-0.64288 -0.37625 3.66
-0.636841 -0.37625 3.66
-0.629079 -0.375222 3.65
-0.623056 -0.375222 3.65
-0.613653 -0.373166 3.63
-0.60599 -0.372138 3.62
-0.600017 -0.372138 3.62
-0.590762 -0.370082 3.6
-0.584823 -0.370082 3.6
-0.577275 -0.369054 3.59
-0.56976 -0.368026 3.58
-0.563853 -0.368026 3.58
-0.556388 -0.366998 3.57
-0.550498 -0.366998 3.57
-0.543082 -0.36597 3.56
-0.53419 -0.363914 3.54
-0.52835 -0.363914 3.54
-0.521033 -0.362886 3.53
-0.515209 -0.362886 3.53
-0.507941 -0.361858 3.52
-0.500707 -0.36083 3.51
-0.494916 -0.36083 3.51
-0.489124 -0.36083 3.51
-0.481956 -0.359802 3.5
-0.476181 -0.359802 3.5
-0.469063 -0.358774 3.49
-0.463304 -0.358774 3.49
-0.456235 -0.357746 3.48
-0.450493 -0.357746 3.48
-0.444752 -0.357746 3.48
-0.437748 -0.356718 3.47
-0.432023 -0.356718 3.47
-0.425069 -0.35569 3.46
-0.419361 -0.35569 3.46
-0.413652 -0.35569 3.46
-0.406764 -0.354662 3.45
-0.401072 -0.354662 3.45
-0.395379 -0.354662 3.45
-0.388558 -0.353634 3.44
-0.382882 -0.353634 3.44
-0.37611 -0.352606 3.43
-0.37045 -0.352606 3.43
-0.364791 -0.352606 3.43
-0.358085 -0.351578 3.42
-0.352442 -0.351578 3.42
-0.346799 -0.351578 3.42
-0.341156 -0.351578 3.42
-0.335514 -0.351578 3.42
-0.328906 -0.35055 3.41
-0.32328 -0.35055 3.41
-0.317654 -0.35055 3.41
-0.312028 -0.35055 3.41
-0.306401 -0.35055 3.41
-0.300775 -0.35055 3.41
-0.295149 -0.35055 3.41
-0.289523 -0.35055 3.41
-0.283896 -0.35055 3.41
-0.27827 -0.35055 3.41
-0.272644 -0.35055 3.41
-0.267018 -0.35055 3.41
-0.261391 -0.35055 3.41
-0.255765 -0.35055 3.41
-0.250139 -0.35055 3.41
-0.244512 -0.35055 3.41
-0.238886 -0.35055 3.41
-0.23326 -0.35055 3.41
-0.228301 -0.351578 3.42
-0.222658 -0.351578 3.42
-0.217016 -0.351578 3.42
-0.211373 -0.351578 3.42
-0.20573 -0.351578 3.42
-0.200087 -0.351578 3.42
-0.195013 -0.352606 3.43
-0.189354 -0.352606 3.43
-0.183695 -0.352606 3.43
-0.178554 -0.353634 3.44
-0.172879 -0.353634 3.44
-0.167203 -0.353634 3.44
-0.161997 -0.354662 3.45
-0.156304 -0.354662 3.45
-0.151049 -0.35569 3.46
-0.14534 -0.35569 3.46
-0.139631 -0.35569 3.46
-0.13431 -0.356718 3.47
-0.128584 -0.356718 3.47
-0.123213 -0.357746 3.48
-0.117809 -0.358774 3.49
-0.112051 -0.358774 3.49
-0.106597 -0.359802 3.5
-0.10111 -0.36083 3.51
-0.0953189 -0.36083 3.51
-0.0897827 -0.361858 3.52
-0.0844521 -0.363914 3.54
-0.0788334 -0.364942 3.55
-0.0729762 -0.364942 3.55
-0.067308 -0.36597 3.56
-0.0617794 -0.368026 3.58
-0.0558726 -0.368026 3.58
-0.0499659 -0.368026 3.58
-0.0441822 -0.369054 3.59
-0.0382589 -0.369054 3.59
-0.0324257 -0.370082 3.6
-0.0266331 -0.372138 3.62
-0.0206604 -0.372138 3.62
-0.0147282 -0.373166 3.63
-0.00873895 -0.373166 3.63
-0.0027497 -0.373166 3.63
0.0032574 -0.375222 3.65
0.00930507 -0.37625 3.66
0.0153438 -0.37625 3.66
0.021441 -0.377278 3.67
0.0275712 -0.378306 3.68
0.0336429 -0.378306 3.68
0.0399305 -0.380362 3.7
0.0461597 -0.38139 3.71
0.0522809 -0.38139 3.71
0.0584021 -0.38139 3.71
0.0646973 -0.382418 3.72
0.070835 -0.382418 3.72
0.0771797 -0.383446 3.73
0.083334 -0.383446 3.73
0.0897281 -0.384474 3.74
0.0961553 -0.385502 3.75
0.102343 -0.385502 3.75
0.10853 -0.385502 3.75
0.115023 -0.38653 3.76
0.121227 -0.38653 3.76
0.127769 -0.387558 3.77
0.13399 -0.387558 3.77
0.14021 -0.387558 3.77
0.146818 -0.388586 3.78
0.15346 -0.389614 3.79
0.159713 -0.389614 3.79
0.166404 -0.390642 3.8
0.173129 -0.39167 3.81
0.179415 -0.39167 3.81
0.185701 -0.39167 3.81
0.192491 -0.392698 3.82
0.198794 -0.392698 3.82
0.205097 -0.392698 3.82
0.211953 -0.393726 3.83
0.218272 -0.393726 3.83
0.225178 -0.394754 3.84
0.232719 -0.39681 3.86
-0.792866 -0.384363 3.8
-0.784526 -0.383351 3.79
-0.776219 -0.38234 3.78
-0.769982 -0.38234 3.78
-0.761725 -0.381328 3.77
-0.755505 -0.381328 3.77
-0.749285 -0.381328 3.77
-0.741093 -0.380317 3.76
-0.73489 -0.380317 3.76
-0.728686 -0.380317 3.76
-0.720561 -0.379305 3.75
-0.714373 -0.379305 3.75
-0.706298 -0.378294 3.74
-0.700127 -0.378294 3.74
-0.690245 -0.376271 3.72
-0.682268 -0.375259 3.71
-0.676147 -0.375259 3.71
-0.66822 -0.374248 3.7
-0.662115 -0.374248 3.7
-0.652464 -0.372225 3.68
-0.64288 -0.370202 3.66
-0.636841 -0.370202 3.66
-0.629079 -0.36919 3.65
-0.623056 -0.36919 3.65
-0.613653 -0.367168 3.63
-0.60599 -0.366156 3.62
-0.600017 -0.366156 3.62
-0.590762 -0.364133 3.6
-0.584823 -0.364133 3.6
-0.577275 -0.363122 3.59
-0.56976 -0.36211 3.58
-0.563853 -0.36211 3.58
-0.556388 -0.361099 3.57
-0.550498 -0.361099 3.57
-0.543082 -0.360087 3.56
-0.53419 -0.358064 3.54
-0.52835 -0.358064 3.54
-0.521033 -0.357053 3.53
-0.515209 -0.357053 3.53
-0.507941 -0.356041 3.52
-0.500707 -0.35503 3.51
-0.494916 -0.35503 3.51
-0.487731 -0.354018 3.5
-0.481956 -0.354018 3.5
-0.476181 -0.354018 3.5
-0.469063 -0.353007 3.49
-0.463304 -0.353007 3.49
-0.456235 -0.351995 3.48
-0.449199 -0.350984 3.47
-0.443474 -0.350984 3.47
-0.437748 -0.350984 3.47
-0.432023 -0.350984 3.47
-0.425069 -0.349972 3.46
-0.418149 -0.348961 3.45
-0.412456 -0.348961 3.45
-0.406764 -0.348961 3.45
-0.401072 -0.348961 3.45
-0.394233 -0.347949 3.44
-0.388558 -0.347949 3.44
-0.382882 -0.347949 3.44
-0.37611 -0.346938 3.43
-0.37045 -0.346938 3.43
-0.364791 -0.346938 3.43
-0.358085 -0.345926 3.42
-0.352442 -0.345926 3.42
-0.346799 -0.345926 3.42
-0.340159 -0.344915 3.41
-0.334533 -0.344915 3.41
-0.328906 -0.344915 3.41
-0.32328 -0.344915 3.41
-0.317654 -0.344915 3.41
-0.312028 -0.344915 3.41
-0.306401 -0.344915 3.41
-0.300775 -0.344915 3.41
-0.294283 -0.343903 3.4
-0.288674 -0.343903 3.4
-0.283064 -0.343903 3.4
-0.277454 -0.343903 3.4
-0.271844 -0.343903 3.4
-0.266234 -0.343903 3.4
-0.261391 -0.344915 3.41
-0.255765 -0.344915 3.41
-0.250139 -0.344915 3.41
-0.244512 -0.344915 3.41
-0.238886 -0.344915 3.41
-0.23326 -0.344915 3.41
-0.227634 -0.344915 3.41
-0.222007 -0.344915 3.41
-0.217016 -0.345926 3.42
-0.211373 -0.345926 3.42
-0.20573 -0.345926 3.42
-0.200087 -0.345926 3.42
-0.194445 -0.345926 3.42
-0.188802 -0.345926 3.42
-0.183695 -0.346938 3.43
-0.178035 -0.346938 3.43
-0.172376 -0.346938 3.43
-0.167203 -0.347949 3.44
-0.161527 -0.347949 3.44
-0.155851 -0.347949 3.44
-0.150612 -0.348961 3.45
-0.14492 -0.348961 3.45
-0.139631 -0.349972 3.46
-0.13431 -0.350984 3.47
-0.128584 -0.350984 3.47
-0.122859 -0.350984 3.47
-0.117471 -0.351995 3.48
-0.11173 -0.351995 3.48
-0.106597 -0.354018 3.5
-0.10111 -0.35503 3.51
-0.0953189 -0.35503 3.51
-0.0897827 -0.356041 3.52
-0.0842135 -0.357053 3.53
-0.0783893 -0.357053 3.53
-0.0729762 -0.359076 3.55
-0.067308 -0.360087 3.56
-0.0617794 -0.36211 3.58
-0.0558726 -0.36211 3.58
-0.0499659 -0.36211 3.58
-0.0441822 -0.363122 3.59
-0.0382589 -0.363122 3.59
-0.0324257 -0.364133 3.6
-0.0266331 -0.366156 3.62
-0.0206604 -0.366156 3.62
-0.0147282 -0.367168 3.63
-0.00873895 -0.367168 3.63
-0.0027497 -0.367168 3.63
0.0032574 -0.36919 3.65
0.00930507 -0.370202 3.66
0.0153438 -0.370202 3.66
0.021441 -0.371213 3.67
0.0275712 -0.372225 3.68
