ply
format ascii 1.0
comment Created by Open3D
element vertex 1771
property double x
property double y
property double z
end_header
0.218833 -0.228875 3.75465
0.529884 0.274521 3.15676
-0.453981 -0.0363115 3.27494
0.536525 -0.189083 3.65086
-0.195591 -0.300837 3.71511
0.474729 -0.320816 3.71857
0.192055 0.432135 3.01801
0.435692 -0.172182 3.8253
-0.113276 -0.20863 3.785
-0.380281 -0.108739 3.63832
0.295547 0.111356 3.47772
0.123842 0.354869 2.90625
0.226277 -0.616141 3.58251
0.135308 0.526873 2.93389
-0.305895 -0.282708 3.57328
0.474543 0.26565 3.34966
0.202336 -0.100691 3.69679
-0.374303 0.115118 3.32898
0.467755 0.0247046 3.59877
-0.0516055 0.167781 3.3786
0.314357 0.139698 3.46433
0.276438 0.155742 3.44101
0.105128 -0.239551 3.83483
-0.412417 -0.209907 3.4545
-0.0433297 0.122255 3.41494
0.505684 -0.260263 3.66073
0.00731421 -0.667397 3.53936
-0.0250356 -0.241981 3.81799
-0.420178 -0.151641 3.4456
0.385886 0.0286182 3.58219
0.130861 0.354039 2.90821
-0.0834608 0.331716 2.93878
0.000142336 0.376481 3.00318
-0.184861 0.296776 2.98922
-0.0786569 -0.693335 3.54207
0.079037 -0.420085 3.73832
0.359857 -0.0302364 3.66974
-0.403188 0.174796 3.28531
-0.296145 0.340767 3.15595
0.174166 0.43425 3.01398
0.546448 0.301556 3.19909
0.356799 -0.552869 3.58754
0.576821 0.039625 3.49482
-0.413292 -0.117862 3.52132
0.510648 -0.2966 3.85393
-0.241901 0.193675 3.32352
0.0664723 -0.634424 3.58325
-0.0191736 -0.210849 3.78466
0.481079 0.25859 3.29904
0.389353 0.333449 3.24724
-0.409713 -0.151135 3.49192
-0.0818193 -0.300685 3.88306
-0.433039 0.162042 3.32902
-0.0986381 -0.209429 3.78666
0.286319 -0.746176 3.50017
0.373557 0.402634 3.07765
0.462288 -0.00406277 3.62956
0.17112 -0.0631831 3.66583
0.203878 -0.282226 3.89654
0.505402 -0.216741 3.79333
0.0662222 -0.0953621 3.67053
0.182998 -0.423858 3.74392
0.535394 0.340319 3.25281
0.524249 0.201025 3.41638
0.0816138 0.349466 2.92622
0.406584 -0.221323 3.85949
0.18585 0.038869 3.54094
0.544919 0.0789189 3.4971
0.0754023 0.00858605 3.55767
-0.131359 -0.568294 3.59529
-0.132567 -0.603169 3.602
0.396188 0.302445 3.29773
0.234863 0.373605 3.1094
0.169011 -0.171113 3.78419
-0.253325 0.00283635 3.54159
-0.276206 0.237457 3.09409
0.144611 -0.43533 3.72543
-0.239954 0.183509 3.31815
0.508685 -0.23248 3.87143
0.19505 -0.377923 3.77479
0.216148 0.421064 3.13042
0.349005 -0.633517 3.55947
0.0029099 -0.51236 3.64251
0.443147 0.317315 3.15398
0.0675595 -0.459739 3.71592
0.298799 0.180789 3.4019
-0.439113 -0.0215338 3.39024
-0.365001 -0.152707 3.62615
0.0285394 -0.536404 3.62784
0.306259 0.369235 2.99636
0.216143 -0.121496 3.72056
-0.0461195 0.357807 2.98141
-0.154067 -0.112572 3.67161
0.219826 -0.527969 3.64977
-0.239775 -0.424162 3.6968
-0.413866 0.211049 3.06623
-0.273292 -0.163539 3.70999
0.61728 0.0485088 3.56499
-0.355117 -0.141212 3.65977
0.0257976 -0.607583 3.57662
0.0398748 -0.224996 3.82418
-0.440162 -0.0633761 3.44424
0.393374 0.0111214 3.60255
0.351336 0.408325 3.08849
0.613429 0.110713 3.4166
0.138141 -0.395923 3.7435
0.0675662 -0.104035 3.6952
-0.137665 0.208526 3.32092
0.0984948 0.487825 2.92462
-0.456723 0.0825579 3.42348
-0.316288 0.160609 3.33096
0.106147 -0.389919 3.77387
-0.0651624 0.318952 3.08429
-0.05181 -0.329219 3.77669
0.217269 -0.3226 3.77924
0.595031 -0.0342325 3.59507
0.629349 0.202405 3.3792
0.445973 0.240447 3.3584
0.602255 0.22536 3.31881
0.191359 0.352364 3.21216
-0.299511 -0.112868 3.55217
-0.0718696 -0.214141 3.79531
0.208766 -0.218531 3.82727
-0.186542 0.309014 3.17652
-0.0586288 -0.234824 3.72736
-0.44519 -0.0202192 3.48028
-0.210364 -0.35466 3.6644
0.412597 -0.268065 3.71451
-0.023176 -0.023761 3.59337
0.0593297 -0.368967 3.75257
-0.0280013 -0.203903 3.7757
0.528623 0.0837349 3.52267
-0.176817 0.23941 3.28111
-0.453041 0.0924251 3.41319
0.249017 0.427148 3.04494
0.555964 -0.400275 3.78135
0.260602 0.0906837 3.51014
0.479773 0.352413 3.16585
-0.0676758 0.0397589 3.51689
-0.115598 0.297242 3.07525
0.314131 0.380971 3.17012
-0.160886 -0.216296 3.67964
0.313853 0.250622 3.34234
0.503183 -0.115553 3.68684
-0.0516477 -0.29461 3.83011
0.00752521 -0.0631726 3.64129
0.448564 -0.0764326 3.70691
-0.360156 0.301672 3.14842
0.356855 0.319976 3.13768
0.603087 0.0304798 3.58246
0.326112 0.320585 3.11552
0.247184 -0.262755 3.88163
-0.128267 -0.332514 3.73504
0.607164 0.115575 3.39583
0.229588 -0.739825 3.47837
-0.101738 0.327484 3.09897
0.416405 0.325237 3.14113
0.218764 -0.249081 3.85229
-0.087702 0.271207 3.25952
-0.453192 -0.0889952 3.34495
0.197192 -0.0185814 3.62072
0.0387623 0.32219 3.2067
-0.269306 -0.287193 3.62473
-0.0955658 -0.182353 3.74097
-0.0188973 -0.597066 3.57851
0.296284 0.398383 3.04104
-0.335741 -0.341813 3.69616
-0.0581393 0.024424 3.53518
-0.0268767 -0.404467 3.7307
-0.20647 0.245049 3.25553
0.482693 0.3688 3.1877
0.245727 -0.419053 3.73335
0.0784528 -0.531962 3.65377
-0.348821 0.0773103 3.38591
0.657846 -0.0474792 3.47874
0.637243 0.171681 3.39019
0.306881 -0.345842 3.74825
0.25292 0.372284 2.96207
-0.332514 -0.207567 3.64186
-0.336349 -0.386981 3.7321
0.309335 -0.133624 3.74789
-0.147503 -0.21015 3.78206
-0.189569 -0.0522617 3.59975
-0.226878 -0.172608 3.72752
0.327124 0.453557 3.11268
0.0269051 -0.773471 3.47476
-0.31336 -0.0301806 3.55359
0.209037 0.389186 3.05605
0.400215 0.0321968 3.59534
0.181093 0.426644 3.12997
0.0788221 0.104788 3.46738
0.246208 -0.26493 3.78033
0.171931 -0.14288 3.75354
-0.185809 -0.189426 3.66341
-0.432941 -0.169008 3.44308
-0.212646 0.0641656 3.4534
-0.0402362 -0.665936 3.52447
0.329656 0.464362 3.1105
0.392702 0.330499 3.0343
0.398833 -0.509413 3.66932
-0.402896 -0.182628 3.48243
-0.000105858 -0.74167 3.465
-0.288306 -0.149817 3.69376
-0.254436 -0.291263 3.87226
0.356457 0.311014 3.14612
0.0117729 0.254344 3.27803
-0.33635 -0.384287 3.72009
0.47219 -0.424625 3.77054
0.253103 -0.0249236 3.63607
0.0634918 0.514382 2.93326
0.515202 0.207585 3.41523
-0.431213 -0.0270884 3.26798
0.0757868 -0.579209 3.59851
0.25162 -0.241495 3.77113
-0.359146 0.165528 3.08547
-0.443424 0.0681435 3.25706
0.157023 -0.216194 3.81694
0.258333 -0.326566 3.76316
0.402499 -0.483774 3.67159
0.042484 -0.401805 3.76341
-0.349004 -0.114193 3.56192
-0.036067 0.334894 3.03215
-0.170615 0.256387 3.09287
-0.157665 0.279672 3.08494
-0.0973904 -0.173003 3.73051
0.414439 0.317193 3.26893
0.409303 0.314085 3.13693
-0.015919 -0.265719 3.86238
0.00211024 0.370302 2.97795
-0.105879 0.34042 2.97435
0.0127494 -0.115519 3.68467
0.402231 0.285723 3.30208
0.54593 0.137442 3.43809
0.205574 -0.264573 3.87739
-0.011941 0.192215 3.35769
0.101402 -0.14098 3.72594
0.23459 0.386526 3.01557
0.584634 -0.00175095 3.52684
0.461456 0.305611 3.15519
0.647712 -0.0265292 3.41134
-0.0246918 -0.570847 3.59429
0.118078 -0.395121 3.76059
0.381516 0.0670558 3.53929
0.385386 0.0312656 3.59414
0.144987 -0.584615 3.61065
0.415571 -0.0849814 3.71123
-0.00514078 0.0374185 3.52884
-0.290785 0.285164 3.04675
0.283941 -0.258076 3.88164
-0.0537021 -0.445716 3.69715
-0.112647 -0.137048 3.68918
-0.205428 -0.0552733 3.61125
-0.329879 -0.476341 3.72076
0.534432 -0.0811161 3.62561
-0.323803 -0.175349 3.61182
-0.0582554 0.0160198 3.5444
-0.157685 0.287512 3.06174
0.29513 0.0811795 3.51082
0.51452 -0.269184 3.87977
-0.344669 -0.240539 3.54352
-0.460553 -0.0741607 3.33316
-0.285463 -0.19481 3.72697
-0.185629 0.277249 2.9739
0.350848 -0.178897 3.80412
0.248743 0.33955 3.09559
0.366372 0.238845 3.36316
0.43382 -0.145404 3.80236
0.479095 -0.0189533 3.66341
0.327595 0.32533 3.13421
0.211518 -0.473484 3.69705
-0.424467 0.00477934 3.40581
0.192938 -0.689396 3.53913
-0.273369 -0.300956 3.60425
-0.140765 -0.392629 3.69991
-0.00966287 0.0878874 3.45748
-0.32947 -0.388958 3.8004
0.514786 -0.127654 3.72249
0.619418 -0.104316 3.50496
0.30807 0.451304 3.08381
-0.23438 -0.265189 3.82766
0.634158 0.0914083 3.44594
0.308941 0.327524 2.97034
0.422552 0.229692 3.3667
-0.126219 0.338468 3.16397
-0.14885 0.350287 3.07805
-0.218655 -0.214349 3.67045
-0.206369 -0.0846864 3.61794
0.636761 -0.115076 3.53349
-0.326433 -0.427341 3.75947
-0.240403 -0.251627 3.68767
0.514724 0.370436 3.24559
0.207968 0.00315237 3.59845
-0.0452554 -0.484082 3.66549
0.480742 -0.411551 3.77085
-0.338041 -0.0184866 3.47166
0.308607 -0.509421 3.62357
0.137265 0.229898 3.33865
-0.0379961 -0.7355 3.49056
-0.152397 0.19105 3.32299
0.548825 -0.198025 3.60192
0.4938 0.0183544 3.60137
-0.330705 0.281028 3.18858
-0.279341 -0.158476 3.7033
0.417758 -0.138608 3.66019
-0.0281107 -0.749692 3.49174
-0.0337503 -0.765636 3.46997
-0.138738 -0.302371 3.86728
0.221054 0.339967 3.07951
0.538828 0.0739411 3.52641
0.495783 -0.0143654 3.6151
0.0839417 -0.774806 3.46329
0.0761561 0.418895 3.12177
-0.317946 -0.200498 3.68536
0.531412 -0.418373 3.78252
0.630502 0.14603 3.46363
0.231894 -0.396227 3.74284
0.149192 0.250687 3.30265
0.0595043 -0.41637 3.73963
-0.141984 0.217561 3.31034
-0.312114 -0.269624 3.60415
-0.0887992 -0.100108 3.65251
-0.200656 0.222213 3.29644
0.217577 -0.0410762 3.63356
-0.022979 -0.27434 3.75878
0.106982 0.363186 3.17268
0.305566 -0.390393 3.73394
0.263499 -0.441101 3.70961
0.0762417 -0.306486 3.80633
0.136013 -0.808135 3.43979
0.245343 0.0456657 3.54239
-0.290577 -0.166685 3.6258
-0.312959 0.15535 3.35309
-0.387891 0.248927 3.01406
0.57239 -0.141495 3.617
0.430367 -0.509229 3.69615
0.0133452 -0.520959 3.65153
0.226709 -0.57863 3.59776
-0.103247 -0.678021 3.55602
0.600484 0.0577627 3.46111
0.594125 0.0773178 3.45367
0.165478 -0.569948 3.62227
-0.0212202 0.382543 3.1472
0.330328 -0.680728 3.54254
0.131302 -0.246969 3.84691
0.331337 0.405907 3.04941
-0.299828 0.304381 3.09664
-0.207016 -0.399856 3.66347
0.455821 -0.262475 3.92205
0.0818338 0.460389 3.07821
-0.271455 0.296914 3.09679
-0.269583 -0.332489 3.62057
-0.00306106 -0.129723 3.72479
-0.25388 0.189772 3.30918
0.437472 -0.0155323 3.6534
-0.144863 0.0599964 3.46815
0.476889 0.282952 3.07713
0.50926 -0.380254 3.78773
0.208431 -0.493855 3.66752
-0.336084 -0.3684 3.7213
-0.0641725 0.418923 3.02506
-0.263729 0.278187 3.08249
-0.459647 -0.0484157 3.31167
0.453363 -0.236617 3.89898
0.625573 -0.0368403 3.54434
-0.334529 0.11983 3.30375
-0.323106 -0.338204 3.64963
0.214243 0.367859 3.19856
0.620473 0.15082 3.36354
-0.442586 0.0446917 3.19786
0.368296 0.380444 3.0497
0.0270009 -0.245358 3.8295
0.491476 -0.0653859 3.60744
0.348953 0.322103 2.97482
0.657644 0.00186336 3.41517
0.0266612 -0.739791 3.46964
-0.281547 0.220081 3.28665
0.0980585 -0.334727 3.77946
-0.326233 -0.422008 3.73362
-0.283103 -0.13 3.67304
-0.042763 0.271913 3.26548
0.099529 0.386133 3.14635
0.0622051 0.34601 2.90808
-0.0497091 -0.292491 3.80857
-0.238559 -0.473842 3.71883
0.0810757 0.307033 3.23052
0.549719 0.0917422 3.41461
0.568068 0.205774 3.30202
0.247649 0.295142 3.28349
0.290845 -0.112427 3.7223
0.275434 0.357311 2.94156
-0.217301 0.370747 3.09633
-0.218366 0.124065 3.40165
0.40146 -0.0185814 3.6364
0.631331 0.0462759 3.5476
-0.281362 -0.132155 3.5749
0.09776 -0.471907 3.69442
0.180158 -0.348933 3.78162
0.431509 -0.245811 3.73339
0.550911 -0.0912253 3.66009
-0.440414 0.00786471 3.35438
0.23423 -0.747767 3.48421
-0.171315 0.0844494 3.43731
0.407879 -0.088118 3.71347
0.456549 0.318128 3.03655
0.073076 -0.269484 3.90881
0.470318 0.281182 3.05766
-0.231467 -0.388619 3.66438
0.42297 -0.463168 3.72154
0.161371 0.43096 3.09086
-0.171343 0.294712 2.99272
-0.0989406 0.307086 2.94167
-0.438907 -0.00398493 3.45402
-0.317514 -0.188767 3.67527
0.122871 -0.78258 3.44679
-0.313012 -0.0773422 3.57292
0.343418 -0.4887 3.63746
-0.3886 0.11374 3.13055
-0.24303 0.269903 3.23654
0.115833 -0.269382 3.78571
0.432804 0.308042 3.01004
0.664323 0.0795654 3.28983
0.385082 -0.164766 3.81847
0.0314019 0.0710944 3.49731
0.296629 -0.469214 3.67452
0.250963 -0.232234 3.76106
0.359741 0.0730656 3.52943
0.264405 0.213109 3.36122
0.291797 0.244353 3.34592
0.570208 0.235299 3.20139
0.507073 -0.243758 3.94108
-0.20945 -0.51984 3.6807
0.262546 -0.352332 3.73833
0.397775 0.207737 3.38712
-0.325549 -0.217629 3.74875
-0.209856 0.242475 3.12348
0.123523 -0.414102 3.75789
0.43279 -0.408945 3.75718
0.456606 0.221666 3.38063
-0.334117 0.139677 3.32353
-0.333231 -0.426878 3.7611
-0.429489 0.225686 3.13687
0.640305 0.151568 3.42672
-0.435766 -0.0509225 3.34981
-0.052146 0.358433 2.96508
0.0903368 -0.444677 3.71773
-0.151363 0.00256443 3.54523
-0.150521 0.420056 3.07068
0.125179 0.249953 3.29983
-0.395431 0.341331 3.13313
-0.244923 0.291094 3.06322
-0.172295 0.0023421 3.54233
0.545192 0.265066 3.19721
-0.419154 0.247353 3.06384
-0.0614078 -0.382904 3.72072
-0.398059 0.149882 3.3116
-0.331231 0.146623 3.31604
0.178474 -0.0704541 3.65999
-0.438061 -0.0684737 3.45376
-0.0733929 -0.0584543 3.60904
0.128698 -0.110023 3.71095
0.394295 -0.324197 3.71933
-0.0222631 -0.712183 3.48718
-0.183253 -0.562532 3.62732
0.460271 -0.162343 3.69258
0.0662162 0.477393 3.02169
-0.261333 0.200072 3.1827
0.0171301 -0.291056 3.88844
0.192537 0.395775 3.08411
-0.199661 -0.312018 3.87186
-0.301975 0.105623 3.39445
0.261381 -0.329179 3.75999
-0.00821495 0.236356 3.30974
0.203746 0.389129 3.17361
0.56273 0.211954 3.14906
0.280004 0.0538983 3.55347
0.402129 0.205767 3.38994
-0.442589 0.120338 3.18937
-0.134181 -0.387796 3.69352
0.559391 0.299469 3.22751
0.447544 0.0113113 3.61046
0.372927 0.340673 2.9918
0.234704 0.00132549 3.58953
0.132644 0.494133 2.98819
0.191258 -0.30959 3.80636
-0.403998 -0.0414855 3.50212
0.345616 -0.187255 3.81248
0.0532219 0.119386 3.43207
-0.0611031 0.374014 3.1198
0.318273 -0.260549 3.91906
0.156692 -0.482829 3.69719
-0.191295 0.274697 3.22522
0.0929797 -0.799928 3.44751
0.301668 -0.721933 3.51344
0.309528 0.386231 3.01618
-0.328232 -0.0435632 3.54311
0.282824 -0.265196 3.88966
0.219126 -0.178703 3.80135
-0.109806 0.185777 3.3501
-0.452189 0.0718213 3.35801
0.496332 -0.248237 3.68215
-0.424648 0.170424 3.30126
0.0668316 -0.0338165 3.6016
0.0661485 -0.461712 3.70059
-0.154602 -0.538782 3.64383
-0.051662 -0.685136 3.50667
0.100925 0.401629 2.94724
-0.439821 0.0175592 3.20013
0.115218 0.412588 2.98914
0.499077 -0.272864 3.90306
-0.164746 0.235381 3.27241
-0.173799 -0.338615 3.69641
0.293781 -0.398746 3.73238
-0.330671 -0.148558 3.65051
-0.280301 0.296863 3.1074
-0.156673 -0.277697 3.73395
0.372983 0.0903267 3.52737
0.658577 -0.0238148 3.39789
-0.0467174 -0.693276 3.50192
0.42389 -0.0441462 3.66786
0.018733 -0.103971 3.68781
0.273648 -0.747986 3.4957
-0.0348198 -0.656964 3.53317
0.224776 0.204316 3.36495
-0.378264 0.0468251 3.38518
0.377279 -0.536536 3.62613
0.0259013 -0.584135 3.58526
0.00963998 -0.593464 3.57776
0.392016 0.122736 3.47967
-0.10276 -0.5914 3.56408
0.131685 0.497391 2.92416
0.000507116 -0.0588862 3.62059
-0.337424 0.200444 3.03729
0.361603 0.141243 3.45478
0.118728 -0.0997971 3.68328
0.481326 0.308451 3.16993
-0.237013 0.103277 3.4217
0.197246 -0.459208 3.69862
0.365591 -0.239364 3.87314
0.141011 0.433701 3.10029
-0.205311 0.382185 3.07933
0.322043 -0.620624 3.55253
0.363469 -0.4079 3.68975
0.157159 0.0246478 3.5672
0.165692 -0.425109 3.73207
0.183907 -0.136882 3.74905
0.290929 0.339452 3.10439
-0.0128663 -0.275149 3.9074
0.171646 0.165996 3.41403
-0.313072 0.061196 3.4564
-0.415894 -0.0210211 3.51156
0.424889 -0.0863121 3.71404
0.542956 -0.275077 3.68403
-0.425819 0.179398 3.06282
0.541985 -0.262705 3.69338
-0.0041163 0.127686 3.42979
0.0431077 -0.124167 3.71366
0.529317 0.311372 3.17556
-0.448417 0.131197 3.34755
0.636326 0.000365376 3.51796
0.161424 -0.282788 3.78962
0.0668926 0.356303 2.90807
-0.13988 -0.365486 3.70304
-0.176968 0.0629637 3.46007
0.463964 0.137976 3.49431
0.459306 0.38756 3.15249
-0.0664647 0.349163 2.97889
0.548489 0.121481 3.43468
-0.308266 0.13935 3.37137
0.399807 -0.564549 3.63021
0.110683 -0.316142 3.8084
-0.0672109 0.286278 3.2311
0.539006 0.119989 3.42633
0.418358 0.400387 3.12013
-0.0871732 0.148789 3.39414
0.200901 -0.457078 3.7129
0.271393 0.201715 3.38973
-0.0256727 -0.039418 3.61021
-0.437685 -0.0208557 3.32764
-0.375193 0.142063 3.09227
0.626683 0.17762 3.47118
0.440946 0.151745 3.47006
-0.0603383 -0.285151 3.86014
0.380424 -0.407783 3.67743
-0.412379 0.112102 3.29977
-0.328312 -0.313694 3.58604
-0.398978 -0.217012 3.50536
-0.185958 0.400114 3.07745
0.264581 -0.446557 3.69142
-0.110774 0.340279 3.02708
0.601356 0.240641 3.33599
0.0951884 -0.395829 3.74482
0.626189 0.154884 3.37811
0.253467 0.384215 3.02288
-0.332788 -0.227196 3.69282
0.629016 0.194076 3.34857
-0.444014 0.191697 3.15418
0.256026 -0.30294 3.79628
-0.326106 0.177162 3.07611
-0.12437 -0.392818 3.71019
0.0992162 0.449369 3.0768
0.202764 0.249133 3.32733
0.508731 0.203689 3.27925
-0.435358 0.0347589 3.2185
0.230806 0.0438737 3.55711
-0.138821 0.28753 3.21899
0.531522 -0.319811 3.82038
-0.139953 -0.229019 3.8101
-0.274216 -0.143596 3.67234
0.0193856 0.217324 3.31986
0.251513 0.334643 2.93704
-0.322904 0.157334 3.29391
-0.146547 -0.0620345 3.61694
-0.00992084 -0.224463 3.81594
0.491359 -0.164304 3.70185
-0.441163 -0.0396893 3.2681
0.0567625 -0.283038 3.79312
0.522362 -0.218845 3.65831
-0.244612 0.194313 3.30557
-0.331092 0.136972 3.35132
0.302364 0.0119301 3.60295
0.415576 -0.402246 3.74372
-0.311731 -0.295924 3.59641
-0.456999 -0.0892344 3.30726
-0.21449 -0.292542 3.8849
0.370156 -0.268354 3.74836
0.13796 0.0426048 3.52966
0.669736 0.0620488 3.3099
0.385836 0.00126231 3.62719
0.39682 -0.0157526 3.6326
0.099427 -0.271859 3.89256
-0.0402215 0.315458 2.93584
-0.343616 -0.00107324 3.4451
-0.0346186 0.361644 3.15315
0.0878885 0.143793 3.42588
-0.43375 0.116259 3.32144
0.293852 0.00705922 3.60703
-0.0755415 0.361202 3.00027
0.605806 0.217486 3.25813
0.0946541 -0.526541 3.64668
-0.0786543 -0.213149 3.77707
0.281676 -0.168661 3.79832
0.441606 0.318144 3.26357
0.14112 -0.430222 3.73002
0.393341 -0.533732 3.65406
-0.334897 -0.285472 3.63481
-0.256915 0.367694 3.13104
0.151447 -0.0837818 3.68552
0.198753 0.35437 3.21106
0.205802 -0.273962 3.9056
0.286731 0.0310253 3.56468
-0.175494 -0.099206 3.65367
0.138464 0.123448 3.44088
0.0618474 -0.72511 3.48842
-0.18056 0.232931 3.28767
-0.221725 -0.106881 3.65573
-0.402413 0.320809 3.11055
0.140951 -0.00449657 3.59681
0.0952594 0.463331 2.95208
0.462098 -0.277987 3.67693
-0.266659 -0.255346 3.66209
-0.241116 0.258416 3.02656
-0.244772 0.298949 3.06874
-0.103687 -0.405012 3.71072
0.602805 0.04605 3.61423
-0.24278 0.0742959 3.45269
0.127741 -0.722647 3.49913
0.234442 0.349153 2.94741
-0.178552 0.16235 3.36554
-0.166382 -0.52373 3.67344
0.0637715 0.506282 2.9647
0.382518 -0.00801015 3.64704
-0.0567744 -0.286947 3.86264
-0.018338 -0.519335 3.62934
-0.0122631 -0.580988 3.57617
-0.13267 -0.64566 3.57192
-0.402187 0.0831038 3.17967
0.0593431 0.469321 3.01332
0.648649 0.104776 3.35052
-0.159008 -0.467695 3.63925
-0.375817 0.186119 3.0814
0.507445 -0.185741 3.69189
-0.456448 0.0700096 3.41059
-0.33516 -0.336249 3.82417
-0.119977 0.285599 3.22393
0.107331 -0.813122 3.44003
-0.120869 0.298229 2.94694
0.349917 -0.0973829 3.73119
-0.323861 -0.358309 3.7567
0.254302 -0.463851 3.69398
-0.33492 -0.287486 3.64137
0.0881226 -0.617831 3.59379
0.275529 -0.0703559 3.68936
0.610994 -0.136565 3.57162
-0.240203 -0.419739 3.70891
0.582053 0.277932 3.34445
0.501644 -0.0562135 3.62599
-0.294762 0.264058 3.05415
-0.38244 0.219607 3.00969
0.246576 -0.244072 3.7576
-0.000776529 -0.620581 3.5649
0.321059 0.354975 2.96243
0.099263 -0.632625 3.58896
0.00399208 0.372504 3.16194
0.457376 -0.36224 3.73848
0.290859 -0.215914 3.7315
-0.100552 0.338912 3.10846
0.348159 0.457625 3.11544
0.386391 -0.234151 3.87047
0.528852 -0.300432 3.73644
0.090328 0.339351 3.19638
0.300391 0.351768 2.95713
0.154529 0.383082 2.93318
0.409522 -0.037562 3.67416
0.394737 0.357012 3.04731
0.575592 -0.000988483 3.66731
0.531911 -0.0778826 3.62157
0.172293 0.478817 3.07115
0.295204 0.15345 3.43141
0.0654376 -0.0566217 3.64277
-0.123774 -0.0360827 3.5769
-0.170951 -0.391981 3.6628
0.515064 -0.00929987 3.59827
0.324244 -0.272709 3.78357
0.475478 0.259159 3.21034
-0.27721 0.271477 3.06771
0.442665 0.126889 3.49764
-0.336463 -0.383109 3.68559
0.520778 0.0947212 3.52446
-0.00625992 0.452626 3.07334
0.191454 -0.491391 3.67261
-0.332104 -0.209015 3.70639
-0.103601 0.320163 3.05089
0.125728 0.20456 3.34982
0.559612 0.253654 3.2394
-0.00382829 0.399664 3.08851
-0.247603 0.23231 3.2783
-0.0438266 0.422227 3.01862
-0.234613 0.359793 3.1041
0.258689 -0.447992 3.69224
0.455807 0.301856 3.2633
0.384962 -0.315123 3.71632
-0.302607 -0.193852 3.74101
-0.127428 -0.201942 3.75764
0.349242 0.359661 3.20151
0.426135 0.314511 3.24693
0.0147879 -0.114509 3.68387
0.0549273 -0.658551 3.55975
0.466098 0.24942 3.21979
-0.282587 -0.162699 3.70762
-0.332689 -0.223783 3.69118
-0.158678 -0.359802 3.68514
0.309977 0.369602 2.99894
0.642482 0.0798781 3.49253
-0.0344582 0.0441034 3.5171
0.324642 0.360295 3.01335
-0.349943 -0.0862918 3.532
-0.314399 -0.0148948 3.52427
-0.244489 -0.325182 3.64009
0.450964 0.305121 3.29676
-0.19263 -0.251269 3.81805
-0.0315471 -0.570631 3.57772
0.0876687 -0.652448 3.57039
-0.181522 -0.206588 3.66672
0.277488 -0.434549 3.69649
0.528421 0.205585 3.39742
-0.310591 0.0824752 3.43353
-0.43928 0.0363312 3.20643
0.313661 0.326585 2.97204
-0.246789 0.235825 3.11713
0.414163 0.284105 3.18853
0.445722 -0.439213 3.74926
0.517181 -0.166253 3.66906
-0.0972979 0.0695759 3.47968
-0.410268 0.00814009 3.42404
-0.0695534 0.308943 2.94253
-0.33333 -0.25476 3.74207
-0.428357 0.0192541 3.24366
0.105242 -0.406397 3.75143
0.553845 -0.0521268 3.59526
0.259434 -0.221023 3.73353
-0.014811 0.0732883 3.48797
0.446831 -0.214545 3.85836
0.430292 0.314568 3.28842
-0.231547 -0.277943 3.68136
-0.00209498 -0.603054 3.58125
-0.033628 -0.257254 3.73894
0.280129 0.0108163 3.58591
0.189657 0.410215 3.09845
0.302381 0.242695 3.34933
0.222125 -0.28223 3.8414
-0.405111 -0.113723 3.55977
0.343791 0.341554 2.96178
0.495724 -0.247085 3.66555
0.0665195 0.486997 3.04512
-0.0399187 -0.372293 3.75048
-0.0576618 -0.0465102 3.61321
0.126564 0.480078 2.96201
-0.27544 -0.163856 3.62483
-0.174716 0.300606 2.98261
-0.256403 0.306578 3.08772
-0.444101 0.114282 3.22774
0.414114 0.0485812 3.56449
0.562513 -0.0641205 3.65675
-0.353875 -0.104796 3.55188
-0.0332716 -0.173512 3.74151
0.64535 0.0197893 3.41275
-0.418008 0.192378 3.25832
-0.0116212 0.168172 3.36845
0.291877 0.375688 3.06165
-0.420973 0.253038 3.1415
0.112168 0.352117 2.93188
0.531553 -0.361245 3.78997
0.504324 0.297878 3.14738
0.572705 -0.156957 3.60703
0.654682 0.0619348 3.37932
0.600263 0.286404 3.34614
-0.106957 0.0313636 3.5053
0.362676 -0.26089 3.91918
0.538692 -0.036925 3.57576
0.496117 -0.0328264 3.63501
-0.399804 0.0773805 3.16914
0.411958 -0.396265 3.72878
0.211503 0.410275 2.99782
0.596435 0.0277747 3.62675
0.142558 -0.618277 3.58795
0.411423 -0.280782 3.70509
-0.230953 0.308573 3.04127
-0.138546 0.309701 3.10999
0.384202 -0.537457 3.66347
-0.138622 -0.0345377 3.58791
-0.197696 -0.515161 3.6504
-0.312177 -0.405341 3.67601
0.345941 0.250391 3.34741
0.567737 0.283601 3.26856
-0.439791 -0.00904918 3.36495
0.443243 0.28351 3.31066
0.330978 0.359416 3.22534
-0.0735655 0.230671 3.29126
0.0818741 -0.641296 3.566
0.528184 0.17267 3.38565
-0.0324838 0.448818 3.04009
-0.16686 -0.0592927 3.61089
0.155508 -0.390173 3.73397
-0.357358 0.0873777 3.39424
0.40438 -0.524855 3.67875
-0.0271201 -0.663241 3.53065
0.38912 -0.104915 3.72883
0.359289 0.189083 3.41679
0.122451 0.424769 2.96834
0.522278 0.272852 3.07295
0.192068 -0.259363 3.86964
-0.291679 0.104019 3.39776
0.595364 0.000184417 3.61429
0.530754 -0.406974 3.77553
0.5588 0.269413 3.18627
-0.0638943 0.270017 3.2644
0.11557 0.447058 2.96004
0.0921435 0.156239 3.41284
0.594225 -0.0389813 3.5946
0.338516 -0.228772 3.85725
0.53739 0.316133 3.19791
-0.00380445 0.352586 2.91863
0.166634 0.291918 3.25995
0.502788 -0.242481 3.84173
-0.456095 0.0500774 3.44893
0.583703 0.231168 3.29094
0.326193 0.326821 3.24551
0.136953 -0.38683 3.7651
0.668288 0.0564792 3.34863
-0.269157 -0.191469 3.72564
0.341407 -0.463664 3.65826
0.365138 0.312273 3.28227
0.149678 -0.170869 3.78126
0.67454 0.0567838 3.34657
0.301627 -0.455326 3.66999
-0.353818 -0.0193158 3.4463
0.353778 0.428425 3.08899
0.540674 0.225808 3.32329
0.0374911 -0.17233 3.76575
-0.0734985 -0.41388 3.70324
-0.45342 0.034984 3.3964
-0.364855 -0.0433043 3.47002
-0.100127 0.314287 2.94797
-0.335259 -0.0417925 3.47396
0.396616 -0.438328 3.68817
-0.0709689 0.424896 3.03337
0.135399 -0.17675 3.78528
0.300714 -0.526806 3.62638
0.561505 0.0273602 3.56279
-0.252145 0.206761 3.3057
0.267037 0.373172 3.12575
0.355426 -0.6598 3.57735
-0.413517 -0.0865581 3.48848
-0.183801 -0.0086149 3.55265
-0.189699 -0.0470378 3.57906
0.586962 0.263625 3.3054
-0.0910234 0.0369334 3.5165
0.0451617 -0.585259 3.58889
0.12909 -0.370124 3.75364
0.454738 0.215255 3.40233
0.0794747 -0.346414 3.77418
0.605961 -0.133583 3.5347
0.219046 -0.0974163 3.69546
0.399399 0.281439 3.30636
0.508221 0.240752 3.23683
-0.167468 0.305085 2.97393
0.228497 0.365732 2.93296
-0.131601 -0.23116 3.81701
0.0318341 -0.748487 3.47644
-0.193992 -0.29029 3.87316
0.318834 -0.222642 3.75857
-0.320091 -0.240197 3.78238
-0.444779 0.0133065 3.2535
0.174088 0.463881 3.01517
0.514619 -0.267921 3.7929
-0.107175 -0.393658 3.71937
0.212732 0.0138825 3.58737
0.204123 0.267462 3.29148
-0.314185 -0.461045 3.73019
-0.124349 0.315592 3.19031
0.445458 0.268782 3.32718
-0.288207 -0.324341 3.62381
0.137698 0.514314 2.94187
-0.244902 0.264285 3.0068
-0.151847 0.32863 3.16674
0.522873 -0.334728 3.81767
0.5675 -0.190345 3.62357
0.229574 -0.366463 3.73891
-0.00474072 -0.507985 3.65804
-0.10113 -0.706602 3.5263
-0.390678 0.0173329 3.42959
-0.33482 -0.296285 3.70524
0.131559 -0.80048 3.43309
0.616639 0.230631 3.41692
0.622799 -0.109217 3.52231
0.0475156 -0.261575 3.86552
0.0783992 -0.721696 3.49457
0.357851 -0.690009 3.53753
-0.319585 -0.243668 3.67142
0.541569 0.183344 3.30803
-0.0334413 0.203438 3.3272
0.626537 0.1711 3.23974
0.0332844 -0.0691141 3.63675
0.520012 -0.156725 3.72082
0.29421 -0.365624 3.74519
0.310164 -0.241625 3.77702
0.392765 -0.592987 3.61708
0.0351739 0.364197 3.0453
0.363485 0.388973 3.07852
-0.425139 0.0498449 3.37437
-0.286785 0.01671 3.50931
0.391585 -0.404624 3.69752
-0.304624 0.198199 3.3061
0.119509 0.269086 3.29292
0.489701 0.380112 3.18826
-0.226883 -0.327337 3.6351
0.0634279 -0.12497 3.70265
0.609667 0.179389 3.26243
0.00884891 0.278295 3.25127
0.500445 0.0913373 3.53044
0.561741 -0.125546 3.64542
-0.164354 -0.280635 3.85465
0.28859 -0.264293 3.88953
0.157221 -0.30436 3.7973
-0.0597184 0.340396 3.17274
0.0855303 -0.729661 3.48868
0.633611 0.194541 3.42948
0.215214 0.368822 3.09386
0.382305 -0.514015 3.63971
-0.415362 0.231381 3.01819
-0.147322 0.270755 3.25108
0.550397 0.35005 3.27184
0.147585 -0.261997 3.76571
0.0293527 -0.20058 3.79558
-0.447003 -0.0924996 3.36925
0.497332 -0.0845219 3.73086
0.0678909 0.213269 3.34652
0.516456 -0.234718 3.8298
0.0576437 0.0696238 3.50286
-0.202522 -0.250789 3.81691
0.615652 -0.0103528 3.58612
0.675368 -0.000174522 3.40643
0.344727 -0.185174 3.83064
0.549354 0.157995 3.33837
0.180845 -0.725535 3.50946
-0.393374 0.143477 3.09223
-0.40905 0.220483 3.25234
0.259717 -0.25881 3.90684
-0.0833337 0.193024 3.33117
0.550112 0.14877 3.36696
0.197456 -0.342161 3.78394
0.338656 -0.238854 3.88449
-0.00222993 0.188518 3.34785
-0.340188 -0.448666 3.72782
-0.221891 0.253546 3.25882
0.669732 -0.028983 3.44457
-0.32414 0.183663 3.30699
0.585115 -0.13058 3.59821
0.314367 0.161876 3.42502
-0.0421636 0.124292 3.41288
-0.266371 -0.312051 3.86844
-0.248528 -0.397046 3.68798
0.0219352 0.360118 3.19012
-0.110862 -0.483059 3.61864
0.671755 0.0744843 3.31985
0.411839 -0.0192471 3.65369
-0.147235 0.313028 3.1897
-0.339032 -0.0396003 3.50132
0.651814 0.115862 3.25906
-0.357004 0.0966046 3.37668
0.532535 -0.140869 3.65546
0.283394 0.474214 3.10329
0.309994 -0.342811 3.74427
-0.0225415 -0.12837 3.70844
0.527517 -0.261826 3.78717
-0.358497 0.0819612 3.33899
-0.354109 -0.329482 3.8509
-0.105325 -0.38642 3.71238
0.0495093 -0.159015 3.75292
0.506085 -0.170486 3.73195
-0.0913832 0.0744718 3.47519
-0.0322745 0.377859 2.97511
-0.245184 -0.196694 3.7621
0.384048 0.342769 3.22843
0.0730674 -0.0724399 3.64637
0.0867038 -0.364948 3.7582
-0.0173342 -0.025645 3.58139
0.634989 0.17753 3.48214
-0.0770714 0.314735 3.21328
0.0574152 0.199463 3.36013
-0.0551558 -0.289819 3.88846
-0.44306 0.272164 3.06356
0.607556 0.0389053 3.57989
-0.129607 0.303947 3.04897
0.614393 0.172641 3.33645
-0.177107 -0.264587 3.83551
-0.359132 0.146538 3.09071
0.122112 0.459807 3.0837
0.529527 -0.373933 3.823
-0.136236 0.336825 3.0989
-0.154742 -0.0482336 3.60055
-0.323463 -0.347556 3.8091
0.123544 -0.265949 3.86661
0.648131 0.0431764 3.34689
0.434779 -0.45262 3.74554
0.435291 -0.48586 3.71554
-0.0981328 0.292981 2.94289
0.181587 0.407476 2.98997
0.290346 0.361194 2.96882
-0.431708 -0.0637214 3.4248
0.137017 0.307047 3.23889
0.0797806 -0.523091 3.66171
0.206336 -0.251018 3.77669
0.0112789 0.371862 3.05827
0.477808 -0.262277 3.68221
-0.17595 0.277308 2.98178
0.462413 -0.40093 3.77879
-0.389987 0.03596 3.38946
0.554583 0.0288451 3.54941
0.175361 -0.28068 3.78896
-0.232177 0.274741 2.98864
-0.18122 -0.453626 3.64968
0.384949 -0.145701 3.68282
-0.363605 0.242162 3.00681
-0.267815 0.296346 3.06696
-0.0975296 0.318239 3.03922
0.0861156 0.113485 3.44399
0.00190306 0.38478 3.13234
-0.424471 0.163947 3.29905
-0.136156 0.372296 3.03792
0.278275 0.139991 3.44366
-0.274421 0.169675 3.34312
0.176552 -0.707396 3.51207
-0.440247 0.205675 3.06555
0.514902 -0.307311 3.83824
0.514262 0.203194 3.34323
0.5024 -0.104306 3.75235
0.45594 0.330635 3.13708
-0.401537 -0.10594 3.58278
0.644367 0.0692141 3.3251
0.2799 -0.507953 3.6361
0.465095 -0.429955 3.76997
0.670048 0.0819432 3.30121
-0.435354 0.238273 3.17405
0.627042 0.0658041 3.46221
0.0792575 0.487669 2.99295
0.521386 0.267155 3.22436
-0.238728 -0.18427 3.63576
0.45799 0.318878 3.04838
-0.0425644 0.407188 3.02195
0.107434 0.517941 2.98703
0.235274 -0.311203 3.80434
0.184928 0.44867 3.02982
0.246723 0.0492758 3.55356
-0.146704 -0.192081 3.74403
0.0524812 0.41555 2.99505
0.148484 -0.406111 3.76318
0.491608 -0.230608 3.68145
0.0700984 0.356504 3.18943
0.0399365 -0.394181 3.74067
0.0453384 -0.353017 3.76496
-0.269651 -0.264325 3.80558
-0.455632 -0.0572196 3.30865
-0.0509055 -0.261547 3.791
-0.41229 0.000767827 3.43121
0.0737219 -0.251139 3.84286
0.131589 -0.219014 3.81623
-0.211728 -0.150213 3.68874
0.480276 -0.0786973 3.6207
0.0246432 0.0688148 3.4988
0.0904007 -0.282109 3.8794
-0.255145 -0.00839722 3.52678
0.361413 0.344446 2.97711
-0.0798032 0.11226 3.43539
-0.190871 -0.295877 3.72351
0.628962 0.149347 3.4378
0.10337 0.369038 3.18219
-0.234557 0.0627743 3.45165
0.358749 0.342874 3.01908
0.441785 0.307019 3.24155
-0.397598 0.15188 3.08881
0.0918128 -0.775032 3.46348
0.521872 -0.137965 3.70277
-0.394719 -0.227379 3.49388
0.0342133 -0.40999 3.7415
-0.24802 -0.291379 3.87213
0.648517 0.103853 3.40712
0.616009 -0.00980461 3.58523
0.28864 -0.384391 3.74611
0.366732 0.318664 3.14736
-0.273732 0.204833 3.18587
-0.0797417 -0.240293 3.80653
-0.0146515 0.13397 3.4213
0.206222 0.374757 2.95376
-0.22765 0.248966 3.17004
-0.31789 -0.313219 3.57428
0.244998 0.364155 2.97748
0.53293 0.18664 3.35504
0.052834 0.123717 3.44269
0.518061 -0.337451 3.85321
-0.170165 -0.168713 3.71506
0.287474 -0.182645 3.81456
-0.277082 0.195223 3.2081
0.616818 0.161235 3.32893
0.432345 -0.23865 3.93858
-0.108619 0.349535 3.14908
0.0110857 0.201285 3.35118
0.462125 0.0706375 3.54744
0.253222 0.342558 3.07645
-0.315848 -0.160977 3.66605
-0.00600743 -0.67682 3.51242
0.605663 0.0546609 3.60539
-0.343836 -0.266898 3.53834
-0.440499 0.0970045 3.16725
0.210763 -0.292495 3.79372
0.433913 -0.212248 3.74022
0.065377 -0.601553 3.58653
-0.431875 0.0192019 3.40142
-0.21408 0.256049 3.13978
-0.0262289 -0.335976 3.78008
-0.438578 -0.104901 3.38911
-0.112772 0.178157 3.35803
0.111717 0.325234 3.23004
0.631702 0.205921 3.42661
-0.313353 -0.0765558 3.55136
0.342462 0.340016 3.0959
0.518249 -0.28623 3.79052
0.552683 0.312544 3.26229
-0.0769718 0.055372 3.49834
0.483619 -0.306965 3.70593
0.0421879 0.407764 3.06844
-0.0772574 0.450026 3.07054
-0.323282 -0.395821 3.69225
0.362978 0.344267 2.99824
0.275321 0.0572659 3.53414
-0.210613 0.1832 3.32277
-0.101041 -0.0596086 3.6211
0.45253 -0.141772 3.66831
0.382115 -0.0483679 3.68164
0.205676 0.45847 3.07774
0.276022 0.271976 3.29827
0.376384 0.238985 3.34957
-0.424522 0.0551357 3.196
0.636601 0.0406413 3.52325
0.0756476 0.347202 2.90783
-0.0749989 0.031116 3.51036
0.0233772 -0.496365 3.66239
0.388491 -0.465925 3.66414
-0.194706 -0.435289 3.66543
0.114157 -0.243491 3.75759
0.4686 0.263653 3.27051
0.395653 -0.52175 3.6838
0.171982 -0.790968 3.45629
0.344494 -0.257821 3.77781
-0.299124 0.239638 3.18282
-0.288672 -0.235433 3.78791
-0.0237725 0.328028 2.9276
0.344827 0.320674 3.27644
-0.0968194 -0.100069 3.6662
0.328126 0.0935253 3.51714
0.202984 0.00248325 3.5835
0.594357 0.195464 3.18271
0.0609996 0.00189543 3.56286
-0.0438728 -0.0536102 3.60814
0.509532 0.207898 3.32621
-0.313272 -0.0987607 3.53547
-0.249454 -0.274023 3.66429
0.490729 0.0260028 3.61235
-0.0193074 -0.232225 3.72908
0.196133 0.219782 3.34299
-0.0703182 -0.736401 3.505
-0.00689745 -0.351991 3.77118
-0.0748162 -0.327449 3.75155
0.269374 -0.388922 3.75003
-0.347104 0.136617 3.34427
-0.354217 0.273809 3.17734
0.50416 -0.202863 3.78212
0.267926 0.346178 3.09229
0.251096 0.262239 3.32017
-0.321606 -0.152398 3.591
0.597684 -0.0564183 3.56957
0.401078 -0.462799 3.73413
-0.214637 -0.186968 3.74404
-0.312873 -0.0636808 3.54251
-0.268409 -0.0933138 3.61812
0.538235 0.177145 3.39952
0.41785 0.332347 3.23323
0.640953 0.143359 3.34985
0.635512 0.0085007 3.47642
0.0539722 -0.220767 3.80652
0.27108 0.347376 2.97155
0.315327 0.280417 3.29488
0.547027 -0.345127 3.84485
0.351612 -0.229144 3.76697
0.251371 -0.694835 3.52474
-0.426846 0.194989 3.13703
0.352307 0.176118 3.41505
0.0920978 -0.645962 3.56324
-0.0811009 -0.3179 3.77226
0.293777 0.450995 3.07514
0.0411289 -0.382432 3.73755
0.66661 -0.0143815 3.42672
0.149115 -0.573102 3.62051
0.150217 -0.400451 3.72976
0.0820639 0.42483 2.96831
-0.335746 -0.355482 3.75383
0.189953 -0.401095 3.76165
-0.0419791 0.279481 3.25728
0.2037 0.415093 3.07527
0.380168 -0.0150592 3.62934
-0.331099 -0.295689 3.88032
-0.376125 0.215786 3.05003
0.473209 0.369809 3.15131
-0.289602 0.214465 3.16111
-0.193555 -0.526996 3.657
0.324522 0.349715 3.15881
0.294125 0.0619518 3.54674
0.10437 0.175898 3.39306
0.453241 0.320052 3.15264
0.678778 0.00943351 3.37411
0.111532 0.324098 3.23126
-0.0776989 0.29693 3.06951
0.517668 0.274392 3.06752
-0.28682 -0.170548 3.72666
0.253875 0.358374 2.95963
0.202423 0.416673 3.03549
0.405599 -0.52323 3.68025
0.0937881 0.35244 3.18252
0.643468 -0.0305226 3.43317
0.324918 -0.166715 3.78666
-0.36185 -0.110371 3.54126
0.000663519 0.273201 3.25513
0.197406 -0.175777 3.79493
-0.419371 0.0673741 3.23029
-0.359593 0.260111 3.21779
0.231605 -0.721191 3.50679
0.136916 -0.669724 3.5454
-0.442919 -0.0735954 3.37359
0.385638 -0.219171 3.74388
-0.209003 -0.120593 3.65694
0.14931 -0.390874 3.7339
0.451233 -0.233709 3.88011
-0.111514 -0.620117 3.56303
0.528805 -0.0671922 3.71852
-0.433545 -0.0585606 3.30512
-0.353049 0.262153 3.21508
0.122866 -0.437427 3.73784
0.517156 0.280774 3.18926
-0.14936 -0.086495 3.64341
0.271066 0.0492831 3.54227
0.0242407 0.352442 3.17209
0.357491 -0.169443 3.81073
0.111498 -0.233736 3.74628
-0.283716 -0.424612 3.71788
-0.252876 0.212465 3.2841
-0.368202 0.207654 3.244
0.516419 -0.0292505 3.61042
0.355994 -0.215534 3.75514
0.00652027 0.410677 3.10488
-0.154166 0.317799 3.02403
-0.395361 0.0785545 3.15697
0.0339224 0.197936 3.34335
0.340307 0.369439 3.04817
-0.423181 -0.0522879 3.50457
0.268578 0.329342 2.9449
0.519329 0.0971588 3.53785
0.555506 0.27773 3.18935
0.342996 0.446328 3.11757
-0.334624 -0.299599 3.75756
0.642726 0.0774803 3.3731
0.509701 -0.113546 3.73754
0.212131 -0.281055 3.89649
0.154123 -0.128706 3.72036
-0.017602 0.389909 3.04764
0.35563 -0.192539 3.71319
-0.365438 0.0899309 3.34642
-0.16609 0.276091 2.96879
0.635476 0.153636 3.50856
0.281958 0.472584 3.10341
-0.3397 -0.35326 3.82787
0.13079 0.429023 2.97307
0.627939 0.148065 3.48997
0.499368 0.287871 3.08085
-0.0413768 -0.212524 3.80012
0.655751 0.110088 3.28235
0.238813 0.262106 3.31847
-0.0458541 0.444996 3.03997
-0.202787 -0.523418 3.66003
0.592292 0.0505891 3.46817
0.184291 -0.29219 3.79516
0.242194 -0.463936 3.69752
0.21777 -0.799443 3.44289
0.070159 -0.271408 3.89269
-0.368292 -0.264832 3.52143
0.383931 0.317714 3.18625
0.0123072 0.000179887 3.55525
0.129522 -0.229056 3.82696
0.346676 -0.422544 3.68771
0.500107 0.225822 3.27312
0.32623 0.409381 3.06954
-0.00137186 -0.649311 3.53906
-0.315513 -0.233452 3.75494
0.0728939 -0.135815 3.74099
0.54238 0.208661 3.31021
-0.171397 0.14949 3.38075
-0.104934 -0.3714 3.7127
-0.444472 0.0817498 3.26994
0.245469 -0.423955 3.71604
-0.33688 0.230641 3.24248
-0.450403 -0.00164557 3.42288
0.0917194 -0.0999216 3.67937
0.530763 -0.208805 3.70885
-0.0923719 0.316423 3.21312
0.511269 0.21048 3.34021
0.136709 0.371144 3.18333
0.263084 -0.040614 3.65481
0.435924 0.283863 3.30917
-0.0673261 0.130408 3.40238
-0.253024 0.207857 3.28926
0.173906 0.450015 3.02902
0.320581 -0.100329 3.72906
0.0773313 -0.653838 3.55432
-0.116338 -0.480586 3.61761
-0.110717 -0.157845 3.71206
-0.103974 0.324389 2.97354
0.633065 0.0567305 3.54152
0.46256 -0.26048 3.91131
0.37464 -0.601349 3.60874
0.453658 0.288415 3.24098
0.303006 -0.118063 3.73018
-0.319945 -0.253385 3.63487
0.341562 0.337478 3.16094
-0.298782 0.240207 3.08197
-0.378939 0.233562 2.99881
0.31131 0.382476 3.05257
-0.168226 0.0312628 3.49622
-0.403717 0.0961174 3.12564
-0.101451 -0.634253 3.55434
0.43172 -0.165052 3.70907
0.0714643 -0.402556 3.75288
-0.417907 0.287729 3.11263
0.185205 -0.560506 3.62826
0.122164 0.203191 3.35078
-0.454088 -0.0786489 3.3056
0.504119 0.0863062 3.53652
-0.0223439 0.34818 3.09147
0.453238 -0.117951 3.64138
-0.0973577 -0.712999 3.52299
0.187963 -0.707118 3.51144
0.432594 -0.290321 3.68187
0.314095 -0.175674 3.79481
0.0789518 0.411925 2.98895
0.0432975 -0.604495 3.59144
-0.422791 0.291099 3.09451
0.0280683 -0.0177983 3.57957
0.576526 -0.0670394 3.62217
0.180683 0.204333 3.37325
0.391055 -0.236879 3.92868
0.0223396 0.433383 2.98852
0.426506 0.0228397 3.60957
0.63623 -0.0162677 3.4732
0.558772 0.253271 3.13768
0.545671 0.0233086 3.49243
0.388314 0.0194716 3.60754
0.418224 0.155944 3.44711
0.622604 0.0682453 3.59092
-0.0830653 -0.144036 3.71706
0.0096283 0.152967 3.38913
0.123472 0.488102 3.05702
0.0981877 0.392993 3.13861
0.475773 0.270216 3.32222
-0.363567 0.167396 3.30753
0.016747 -0.0400964 3.60238
0.567789 -0.0454981 3.67926
0.593715 -0.0771298 3.6105
0.306581 -0.455441 3.68134
0.367204 -0.334229 3.74311
-0.343478 0.282628 3.1654
0.532596 -0.221238 3.64493
0.377483 0.346918 3.09395
-0.200097 0.318018 3.02081
0.473519 -0.0748924 3.60948
0.32661 -0.62862 3.54814
0.435803 0.302345 3.24933
-0.316135 0.29696 3.16215
0.505078 -0.173572 3.81614
0.248528 -0.175377 3.78418
0.011378 -0.211057 3.78946
0.182224 0.450565 3.03069
0.147444 -0.462284 3.71548
0.617049 0.0347147 3.4843
0.236559 -0.182412 3.80667
-0.303557 0.0504854 3.45454
-0.300929 -0.31732 3.61308
0.357652 -0.176989 3.82982
-0.274251 -0.162028 3.623
-0.406825 0.134818 3.31854
0.421748 0.403778 3.14635
-0.238582 0.248986 3.08916
0.478869 -0.0777818 3.61955
-0.0507712 0.342057 2.93769
-0.142268 -0.244081 3.81984
0.0721526 -0.440008 3.72034
0.259968 0.379971 2.98474
0.526565 -0.0585934 3.59884
-0.421149 0.0628545 3.15448
-0.210085 0.27989 3.07565
0.559339 -0.0313041 3.70093
0.108936 0.0380083 3.53036
-0.382956 0.267766 3.226
0.0555298 0.385679 2.9355
-0.0135245 0.346457 2.93728
0.332596 -0.728321 3.50255
-0.420261 -0.127103 3.41159
0.563588 0.138904 3.36264
0.202415 0.144431 3.42741
-0.0664375 0.367364 2.9983
0.0903265 -0.201335 3.79061
-0.323916 0.00126529 3.50427
-0.427957 0.108526 3.23477
0.211985 -0.0198396 3.60938
-0.0633397 0.0807862 3.47245
-0.173766 0.386778 3.08376
-0.0340862 0.346555 3.03587
-0.424215 -0.12387 3.37918
-0.307271 -0.236118 3.62161
0.595675 0.253194 3.27345
0.0910387 -0.375729 3.76714
0.527266 0.249358 3.12015
0.0445702 0.174636 3.36967
0.452459 -0.31655 3.69342
-0.171846 -0.364462 3.70083
0.254783 -0.122199 3.74323
-0.237916 0.320045 3.0791
-0.250638 -0.366268 3.65789
0.175925 -0.732072 3.491
-0.084017 0.347093 2.9929
0.0825155 -0.522808 3.66227
0.454274 0.252007 3.36187
-0.175784 -0.253849 3.71721
0.438235 0.269102 3.211
0.359429 0.328673 2.99068
0.641833 -0.0536975 3.45084
0.565637 -0.156585 3.61994
-0.225779 -0.190229 3.73049
0.400013 0.106409 3.51375
-0.0467532 -0.659608 3.52852
0.430841 0.247875 3.3629
0.247047 0.392814 3.02927
0.288459 0.327814 3.09936
0.465107 -0.389196 3.78746
-0.42159 0.0367277 3.37443
0.311647 0.4351 3.06886
-0.305763 -0.0769285 3.59023
0.0826013 -0.0868964 3.66368
-0.224815 0.113966 3.39685
-0.34406 0.104875 3.31705
0.22513 0.206501 3.3626
0.501175 -0.102414 3.63012
0.142249 0.416808 2.99522
0.338792 0.367084 3.17367
-0.418223 -0.190343 3.4563
0.135345 0.339451 3.21796
0.604617 0.216128 3.25101
-0.322867 -0.331606 3.7873
0.195489 0.365262 3.04219
0.581458 0.217686 3.13927
-0.427449 0.188844 3.14659
-0.330813 -0.422855 3.70509
-0.0125709 0.35663 2.94038
-0.125647 -0.174571 3.72803
-0.0317116 0.406669 3.0177
0.530329 -0.0737951 3.6167
-0.227037 0.258378 2.97658
0.614084 0.199559 3.26627
-0.0433583 0.343738 2.92337
0.50039 -0.167546 3.76793
-0.1591 0.359008 3.0583
-0.0436747 -0.147458 3.71118
0.189043 0.220284 3.34137
0.346945 -0.0995696 3.73316
0.426635 0.253905 3.34071
-0.425142 0.21357 3.05205
0.120014 -0.284151 3.89621
0.110776 0.431736 2.98958
-0.323821 0.108549 3.38796
0.418054 -0.108874 3.75465
-0.0808735 0.133263 3.39722
0.523661 -0.253581 3.9319
-0.312019 0.0376227 3.46768
0.11836 -0.0654866 3.64551
-0.0431638 -0.337587 3.75551
0.0135696 -0.712603 3.50059
0.372493 -0.563573 3.61637
0.57627 0.236795 3.31566
0.660425 -0.0256643 3.44785
0.42368 -0.0313509 3.6687
-0.00402832 0.158021 3.38106
0.194566 0.447766 3.09172
0.289714 -0.132807 3.76015
0.213457 0.421567 3.07452
-0.269628 -0.149219 3.59451
0.434824 0.31656 3.06198
0.0941117 -0.387099 3.73883
0.262387 0.421929 3.0278
0.565434 0.240576 3.14236
0.446748 -0.0928024 3.72456
-0.294289 -0.249908 3.62801
-0.143905 -0.128732 3.69064
0.462255 -0.238049 3.94296
-0.0257809 0.387847 3.13957
0.437829 -0.07103 3.71444
-0.430147 0.172109 3.1945
-0.425396 0.192117 3.13342
0.378833 0.0888461 3.52988
0.39693 0.283552 3.32337
0.533695 -0.321643 3.80803
0.466109 0.354443 3.14976
0.368672 -0.0222639 3.65047
0.12101 0.164195 3.40842
0.504328 -0.198013 3.77335
-0.0407283 0.234679 3.29178
0.477569 -0.103432 3.74042
0.423782 -0.191298 3.84453
-0.328331 -0.072427 3.57567
-0.0618327 -0.281962 3.77535
0.485388 -0.114587 3.64183
-0.088366 -0.305218 3.77333
-0.138719 -0.502568 3.60177
-0.240181 0.0382743 3.47773
-0.317291 -0.191275 3.69658
0.0650017 -0.602622 3.58608
0.477092 0.117731 3.49793
-0.0170405 0.393947 3.0454
-0.420839 0.248577 3.03604
0.28716 -0.320476 3.75583
-0.442446 0.179083 3.13346
0.0328865 0.446017 3.08637
-0.180695 0.15848 3.36947
-0.248429 0.0991031 3.42458
0.545181 -0.060104 3.71409
-0.227338 0.21745 3.12477
-0.459525 -0.045607 3.26718
0.121985 -0.816606 3.43701
0.0353284 -0.276381 3.86485
0.308546 0.0513834 3.54558
-0.409101 0.0897237 3.20418
-0.251511 -0.358881 3.65046
0.351296 0.31027 3.26746
0.0737414 0.0508199 3.52594
0.436427 -0.239288 3.88392
-0.00711679 0.444489 3.08335
-0.0680461 0.335621 3.02564
-0.426715 0.158953 3.23655
0.0790546 -0.500133 3.6683
-0.0326464 -0.568766 3.57898
0.25289 0.393892 3.02568
0.155759 -0.0390199 3.62203
0.130726 -0.269255 3.78736
0.403304 -0.447666 3.7445
-0.135797 -0.257253 3.81698
0.447376 -0.30664 3.70414
0.362316 -0.20368 3.72656
0.0245936 -0.191774 3.77025
0.0634999 0.292249 3.2441
-0.184147 0.276075 3.23972
-0.0199695 0.431564 3.08433
0.09917 -0.280821 3.8793
-0.0277555 -0.295032 3.77583
-0.224988 0.229583 3.2964
-0.336457 -0.3884 3.70982
0.480772 -0.294965 3.6926
0.159603 0.421417 3.00272
0.392631 -0.161575 3.70091
0.308634 0.288113 3.28542
0.160113 0.0681432 3.50491
0.435544 0.288623 3.20668
0.198111 -0.42634 3.73919
0.103419 0.235109 3.32785
0.3182 -0.364699 3.73462
0.526371 -0.295459 3.82914
-0.358541 0.217139 3.04558
0.511142 0.207149 3.33302
-0.443637 0.187234 3.15042
-0.301828 0.0541635 3.46587
-0.334651 -0.284232 3.57059
-0.446498 0.101283 3.32494
0.417223 0.341373 3.07249
-0.0699718 -0.316611 3.76292
-0.424628 0.104438 3.22581
-0.130342 -0.65146 3.57966
0.144295 -0.181444 3.79178
-0.389707 -0.0616401 3.48592
0.303756 -0.257743 3.78649
0.337881 -0.644298 3.55916
-0.436043 -0.033204 3.41487
0.425412 0.327367 3.0634
-0.0868742 -0.140281 3.71229
-0.110453 -0.602138 3.57114
-0.411352 0.0637628 3.37628
-0.168866 -0.249211 3.80341
0.527775 0.0264671 3.52262
0.0561152 -0.762741 3.45829
0.453452 -0.337864 3.7288
0.276081 -0.140333 3.76635
-0.0350533 -0.25778 3.84896
-0.064707 -0.699187 3.51575
0.218481 -0.128972 3.74523
0.105823 -0.623268 3.58394
-0.0448956 0.00791144 3.55531
0.631588 0.123233 3.41598
-0.336777 -0.251638 3.57516
0.646776 0.0922495 3.45001
-0.0460198 0.322594 3.19436
0.0398316 -0.170547 3.74921
-0.0882363 0.299921 3.06065
-0.0954816 -0.134691 3.70466
-0.00899291 -0.371079 3.75323
-0.136694 0.276725 3.23114
-0.184258 0.0309862 3.49412
-0.385472 -0.0128357 3.45596
-0.0955014 -0.296789 3.75867
0.610945 -0.0766411 3.56919
-0.341104 0.0309248 3.48015
-0.396568 -0.00866079 3.44695
-0.373806 0.0761145 3.38724
0.514521 -0.0854719 3.72719
-0.143362 0.337369 3.17814
0.151541 -0.258836 3.87909
-0.364552 -0.224929 3.54273
0.0449893 -0.493264 3.68315
-0.0721922 0.350968 2.96686
-0.30682 -0.298448 3.83725
-0.443309 0.0533922 3.26927
0.26836 0.392028 3.03006
0.0509477 0.442407 3.07517
-0.275378 0.172492 3.18758
0.0134685 -0.408238 3.7524
0.489017 -0.0920825 3.74424
-0.149975 -0.277355 3.85533
-0.268867 -0.186877 3.72063
-0.185167 -0.532164 3.66598
0.469072 0.325554 3.14274
0.116559 -0.713962 3.50604
0.646779 0.111591 3.334
-0.0424228 -0.246131 3.79171
-0.169056 0.352749 3.02547
-0.306227 0.1925 3.05675
-0.1888 0.0701697 3.46531
0.5335 0.0385344 3.56089
0.336235 0.363816 3.02524
0.161228 0.389972 3.16645
-0.0551159 -0.257545 3.82899
0.53138 -0.0575291 3.59829
0.459755 0.116838 3.49631
-0.349755 0.300428 3.18563
-0.23945 -0.0350783 3.58565
0.401219 -0.471709 3.66519
0.200672 -0.117756 3.7153
0.453526 0.27634 3.2522
-0.290173 0.34525 3.13652
-0.106914 -0.556079 3.57697
-0.332692 -0.226999 3.7054
0.171661 0.400307 3.14158
0.037791 0.284104 3.24842
0.222706 -0.0855685 3.68322
-0.0195129 0.39837 3.06051
-0.404277 0.0932361 3.15544
-0.36799 0.323324 3.12422
-0.116263 -0.241631 3.80262
-0.442048 0.0421325 3.25368
0.408736 -0.241431 3.89909
0.158415 0.405035 2.9867
0.135333 -0.0824395 3.66409
0.437813 -0.472917 3.72842
-0.39829 -0.102901 3.55159
0.232351 0.478548 3.07223
0.430416 0.242682 3.3793
0.161585 -0.346936 3.77069
-0.4603 -0.0730935 3.33362
0.407387 -0.220609 3.8764
0.217176 0.402932 3.06579
-0.358519 0.165545 3.07724
0.102369 0.418366 3.11135
0.342631 -0.299373 3.75942
0.00692916 0.385166 3.07232
-0.0431631 0.360228 3.11123
0.615325 0.00786638 3.59446
-0.347411 0.227111 3.0065
-0.0268447 0.0243403 3.53996
0.0913513 -0.783774 3.461
0.00170302 -0.440967 3.70647
0.403011 -0.00322533 3.61976
0.571954 0.254815 3.20036
0.0482993 0.362541 2.93036
-0.335426 -0.30422 3.61633
-0.0578587 -0.493897 3.65111
-0.441862 0.0153099 3.26238
-0.272746 -0.362027 3.63462
0.217727 0.36659 2.93093
-0.148565 0.330114 2.99143
0.0585387 -0.646408 3.55772
0.451038 0.143955 3.4652
0.522184 -0.161054 3.71158
-0.23091 -0.0207756 3.55895
0.101492 -0.034801 3.60719
-0.317092 -0.177737 3.65777
-0.425573 0.0691553 3.17273
0.504278 0.188796 3.43862
-0.114528 0.338341 3.02876
-0.320184 -0.259676 3.72616
0.418751 -0.202456 3.84067
0.21856 -0.580861 3.59793
0.459656 0.268331 3.19748
-0.301596 -0.377645 3.64753
0.298354 -0.196226 3.72766
0.327653 -0.100888 3.71532
0.307343 0.209159 3.38693
0.106133 -0.282166 3.78287
-0.43731 -0.0557166 3.48675
-0.278093 0.218994 3.20527
-0.398768 -0.0246648 3.50199
-0.0424201 -0.0991091 3.657
0.532582 0.146266 3.35516
0.51615 0.242962 3.25089
-0.306336 -0.152146 3.59289
0.389169 -0.239099 3.93163
-0.105807 -0.42168 3.67911
-0.0523345 -0.035904 3.58741
0.581366 0.00877106 3.53864
0.537137 0.133953 3.48666
